# .PCD v0.7 - Point Cloud Data file format
VERSION 0.7
FIELDS x y z intensity
SIZE 4 4 4 4
TYPE F F F F
COUNT 1 1 1 1
WIDTH 1
HEIGHT 102
VIEWPOINT 0 0 0 1 0 0 0
POINTS 102
DATA ascii
-0.57339334 -2.8081136 0.19741741 432
-0.15818483 2.9175575 0.14619325 289.5
-0.21349999 2.8643718 0.21559212 298
-0.17813173 2.8943172 0.21314414 265
-0.092620194 2.8732252 0.24679951 382.66669
-0.21663667 2.9245346 0.26590103 265
-0.15295051 2.9138541 0.25378272 291.39999
-0.020000875 2.9187717 0.27909479 384
-0.20487213 2.8972554 0.32756659 289
-0.19985861 2.8970551 0.37302026 293
-0.067249581 2.8870857 0.34579253 340.5
-0.14740033 2.9418087 0.34353134 286.60001
-0.033513725 2.9694743 0.36748224 286
-0.03416279 3.0406795 0.32018316 289
-0.52710342 2.670476 0.48146984 243
-0.59459019 2.7070391 0.4858225 348
-0.45944831 2.7322853 0.48070225 241
-0.38360658 2.7607782 0.4784593 414
-0.54735422 2.8394594 0.48844254 422
-0.12553245 2.8870776 0.44615459 293
-0.17193034 2.9121833 0.44862098 298.5
-0.028345004 2.9443066 0.44406092 288.5
-0.50198781 2.5767231 0.58352315 334
-0.58131063 2.6768649 0.56703728 306.5
-0.43906251 2.6585855 0.55783749 284
-0.37706709 2.7396293 0.5602904 330.5
-0.31652847 2.8344181 0.56365752 273.5
-0.14135149 2.8781683 0.55834472 301
-0.091123328 2.850821 0.55424947 292
-0.20137149 2.9579198 0.53579617 271
-0.024973057 2.9493165 0.55826509 294
0.017847657 3.0218492 0.59209555 304
-0.55466121 2.6516883 0.65120631 278.33334
-0.43473324 2.6594729 0.64455205 272
-0.49224445 2.7033861 0.65217996 275
-0.37271079 2.7408319 0.64870101 271
-0.31919447 2.8100176 0.65235686 275
-0.29597929 2.8189306 0.65195841 277
-0.1345953 2.8525116 0.64700711 309
-0.082592428 2.8472247 0.64401597 311
-0.20228136 2.9463882 0.65943044 555
-0.022355825 2.9557471 0.65189266 307
0.020101219 2.9792879 0.65235549 305
-0.50922775 2.5886219 0.76480913 301
-0.55840725 2.6533279 0.7391178 285.39999
-0.4380261 2.6551685 0.74337214 289.39999
-0.48707673 2.7045095 0.7142632 281
-0.35471842 2.7318859 0.74775636 277
-0.2795226 2.7779298 0.74238145 270
-0.14108375 2.7579336 0.76421344 2841
-0.096880257 2.7873514 0.76597536 2161
-0.32090375 2.8123312 0.71638066 279
-0.15977104 2.8447986 0.73375547 1402.3334
-0.057006232 2.8362432 0.74881071 949.66669
0.027600423 2.8631454 0.77054393 329
-0.28545538 2.9133708 0.7946797 265
-0.17066368 2.9177458 0.72047442 309
-0.018288523 2.9378233 0.7153514 310
0.013639346 2.9279428 0.74667007 310
-0.3057231 3.026037 0.74072683 273
-0.2496976 3.0454705 0.73989701 301
0.079141229 3.0131166 0.78966141 338
-0.50460738 2.5626254 0.85746199 347.5
-0.55039114 2.6142974 0.83686632 355.5
-0.45136085 2.6440308 0.833498 288
-0.36369085 2.6502442 0.86101043 273
-0.23706242 2.649442 0.88464427 285
-0.26470968 2.7720585 0.84075499 336.5
-0.052056313 2.7300272 0.82090592 2657
-0.15353009 2.8849125 0.85239315 316.33334
0.015440583 2.8652987 0.83988428 349
-0.22016802 2.9411657 0.86570907 309
-0.034586638 2.9186363 0.85131598 319
0.015138656 2.9979348 0.86199331 289
-0.24552289 3.0565171 0.81248826 315
-0.37731108 2.5773869 0.94853294 293
-0.24955031 2.7246413 0.96916127 287
-0.17547311 2.7437429 0.96780568 291
-0.32904789 2.835665 0.92634261 390
-0.23570782 2.840313 0.95642906 315
-0.13629822 2.8431358 0.94322062 332.20001
-0.055696115 2.8334699 0.94382697 338
-0.29512629 2.9319248 0.94193363 289
0.011382401 2.9777124 0.93169653 267
-0.045574874 3.0143025 0.94172406 309
-0.25217491 2.7435808 1.0449538 1293
-0.17695406 2.7515738 1.0409834 307
-0.15548091 2.8218832 1.0562534 311
-0.36919272 2.9591541 1.0283637 601
-0.12056407 2.9381883 1.0816548 398
-0.25974807 2.7967083 1.132323 306
-0.19316521 2.846338 1.139897 311
-0.45332038 2.979424 1.1714754 271
-0.3741003 2.9774189 1.190066 269
-0.19443461 2.9312334 1.1624653 313
-0.38206592 3.029969 1.1238441 264
-0.46044838 2.885777 1.2532923 277
-0.3505697 2.8970375 1.2450371 392
-0.26067284 2.8777456 1.230967 269
-0.52666271 2.9808011 1.2061293 261
-0.44502941 2.9216084 1.2618037 277
-0.44681093 2.8354113 1.3155268 180
