# .PCD v0.7 - Point Cloud Data file format
VERSION 0.7
FIELDS x y z intensity
SIZE 4 4 4 4
TYPE F F F F
COUNT 1 1 1 1
WIDTH 1
HEIGHT 103
VIEWPOINT 0 0 0 1 0 0 0
POINTS 103
DATA ascii
3.9071105 -6.1252189 0.13262662 374
2.5344498 -0.41250458 0.17979154 273
2.3852499 -0.33982641 0.14936532 519.5
2.448122 -0.34208676 0.15418322 433.00003
2.47575 -0.29128784 0.13875864 420
2.5051048 -0.28969878 0.18272769 375
2.3844917 -0.0032055702 0.1291151 289
2.3446989 0.045631874 0.15999454 512.57147
2.44542 0.10916784 0.12255839 295
2.4432464 -0.3580454 0.24807613 404.66669
2.5260024 -0.26964599 0.252886 323.75
2.6183782 -0.23223695 0.27578667 297
2.6287718 -0.13926622 0.27544093 302.5
2.7172296 -0.051797409 0.27263546 287
2.3650911 0.037774947 0.24911021 528.81818
2.4137828 0.070131794 0.28222996 523
2.4626582 -0.33184373 0.3383705 508.5
2.5265505 -0.39797309 0.33828986 274
2.4479313 -0.27369338 0.35850263 443.66669
2.5420682 -0.24565716 0.34161732 377.80002
2.7000799 -0.23834929 0.31442934 297
2.6960311 -0.1700723 0.35845029 357
2.7455158 -0.15266256 0.33149058 329.39999
2.812573 -0.11893657 0.33555192 377
2.5744472 -0.046031024 0.34387439 312.33334
2.686255 -0.048316106 0.31441754 305
2.3630652 0.023364756 0.3447668 566
2.4130886 0.055186432 0.36605209 504.20001
2.4694054 -0.33256435 0.40105727 493
2.5680747 -0.33825415 0.45031393 347
2.4809341 -0.28267223 0.44606197 323
2.5430219 -0.26604724 0.43359524 337.66669
2.6296909 -0.24959509 0.43625101 392.33334
2.7358479 -0.23174839 0.45642924 415
2.7489641 -0.14957678 0.43519631 473.57144
2.8013318 -0.12369584 0.40730381 473
2.51687 -0.050040912 0.40074396 321
2.645093 -0.048810333 0.42781433 327
2.7523866 -0.040948074 0.45632732 883
2.4539402 0.013774641 0.44352567 359
2.5511179 0.048876014 0.44865131 387
2.6915574 -0.31481072 0.56060648 311
2.7673402 -0.36437726 0.51236582 222
2.893846 -0.37946078 0.57882762 277
2.9473143 -0.31860006 0.5530358 258
2.7589903 -0.24308303 0.51040071 2611
2.8476262 -0.21855427 0.57268995 525
2.9011316 -0.27248946 0.57786262 447
2.7508802 -0.14601225 0.50916082 3134
2.852438 -0.135315 0.57242668 503
2.6863294 -0.059308786 0.50465786 2685
2.7161677 -0.062811583 0.56036711 1513
2.8294654 -0.039239433 0.5137732 1651
2.9558241 -0.038052935 0.58090311 491
2.637013 0.026419057 0.50144583 331
2.7470398 0.066507101 0.50855803 307
2.8351412 0.048349567 0.55644202 322.5
2.8904014 0.10039718 0.57547837 263
2.7736042 -0.32815456 0.62546444 311
2.8144047 -0.33620754 0.69042534 417
2.9269853 -0.31117463 0.6416859 363
3.0135016 -0.39322701 0.65251493 281
2.8718357 -0.23814361 0.66541636 468.33334
2.8786325 -0.14389929 0.65492129 442.33334
2.9711823 -0.14407852 0.6444419 303
2.8395321 -0.048858102 0.66598719 455
2.9030447 -0.032714568 0.66750997 495
2.7749884 0.033679228 0.62257785 553
2.834455 0.053465106 0.66939348 445
2.8805454 0.10294775 0.63432097 358
2.8670814 -0.34591866 0.76062453 341
2.9480743 -0.30859327 0.73965156 1372
2.793432 -0.22162387 0.74657285 2219
2.9019566 -0.24761087 0.7639538 558
2.8693695 -0.1602761 0.75753641 443
2.9613185 -0.14801499 0.7389909 371
2.8333368 -0.050632328 0.75109506 1653
2.8473368 0.040511653 0.7532059 529
2.9201128 0.058766022 0.76465321 415
2.8578517 -0.23875783 0.82099915 1600.3334
2.9288464 -0.15627769 0.85463572 345
2.7750971 -0.075621076 0.80384886 2707
2.8300207 -0.045844041 0.84624738 1333
2.9153125 -0.093009599 0.82934469 411
3.0201516 -0.026203629 0.84800136 307
2.8654184 0.043741941 0.82003629 359
2.9311264 0.055906799 0.83198142 373
2.8064964 -0.21342169 0.94025981 327
2.959682 -0.22729675 0.9297117 311.66669
2.8398457 -0.15024121 0.9467634 373
2.9431596 -0.15441076 0.90238726 345
2.9391286 -0.062779449 0.9461087 390.66669
3.0978081 -0.096091285 0.93359876 297
2.8494575 -0.23180893 1.0578853 306
2.9941056 -0.29846555 1.0564467 257
2.8754654 -0.15210748 1.0563437 305
2.8602147 -0.089769483 1.0850959 281
2.965045 -0.087836154 1.0445875 261
2.7845821 -0.20233741 1.1315482 296
2.8343985 -0.22527298 1.1475827 348
2.8841789 -0.16246189 1.1613202 290
2.8455803 -0.092125855 1.1481873 414
2.9211526 -0.080764875 1.1022738 308
