# .PCD v0.7 - Point Cloud Data file format
VERSION 0.7
FIELDS x y z intensity
SIZE 4 4 4 4
TYPE F F F F
COUNT 1 1 1 1
WIDTH 1
HEIGHT 110
VIEWPOINT 0 0 0 1 0 0 0
POINTS 110
DATA ascii
-0.42888778 -2.5678058 0.16579089 255.66667
-0.10446283 3.1260436 0.19922587 277
-0.074769303 3.151279 0.15504055 268
-0.21014565 3.3213151 0.13069272 272
-0.26440236 3.4116123 0.15863806 277
-0.12063517 3.1304884 0.25617468 287.25
-0.05575861 3.1853275 0.252253 257
-0.26165935 3.3965192 0.22919041 277
-0.24172549 3.4131956 0.25752819 277
-0.67807937 2.7787049 0.34366184 374
-0.63909352 2.8594527 0.34148812 337
-0.55372858 2.881361 0.38520515 314
-0.54920453 2.9540048 0.36137003 302
-0.43935466 2.9712131 0.3498449 415.33334
-0.589764 3.0147781 0.33804268 282
-0.11839425 3.1371975 0.34622651 278
-0.040742815 3.1133819 0.31944761 356
-0.056748107 3.2188544 0.34382993 351.5
-0.336409 3.3677082 0.35247231 315
-0.23552236 3.3765974 0.3576616 278.33334
-0.25177637 3.4051456 0.3224726 287
-0.642084 2.7518351 0.43694699 164
-0.70442319 2.8388979 0.49554294 265
-0.63219893 2.8538561 0.49276847 254
-0.54857796 2.8396232 0.48850286 418
-0.47109208 2.8717899 0.48626009 239
-0.4154481 2.9688015 0.48739719 243
-0.1414386 3.1325347 0.45358878 278.33334
-0.04390382 3.1684885 0.45090801 272.5
-0.34036681 3.381175 0.46822941 283
-0.23187882 3.3455405 0.46294659 279
-0.33666465 3.4276199 0.43777055 261
-0.70257962 2.8286068 0.55267411 287
-0.62831914 2.8479559 0.54986548 262
-0.55097866 2.8548164 0.54632974 257
-0.44057819 2.9317901 0.54519099 251
-0.11131383 3.1335487 0.54186893 282
-0.038221821 3.1416969 0.53938282 287
0.041273177 3.1521924 0.53687698 420
-0.20405555 3.2443352 0.55195308 301
-0.32806888 3.3645623 0.56403422 263
-0.22861695 3.3062446 0.55646545 265
-0.70213366 2.8227165 0.61312997 277
-0.6388607 2.8366277 0.64851487 280.20001
-0.54872894 2.8579135 0.63837028 267
-0.46196935 2.8809173 0.6461128 254.33334
-0.43778634 2.93575 0.62805927 254.33334
-0.39216763 2.9707072 0.63930333 259
-0.19081581 3.0368559 0.66764593 1793
-0.089441225 3.0909779 0.63494515 298
-0.21185428 3.1849151 0.61449379 503
-0.1258119 3.1677225 0.643525 291
-0.036184281 3.1543326 0.63829929 284
-0.30524781 3.213202 0.69050914 311
-0.29280439 3.2356548 0.69204164 301
-0.1929017 3.2304168 0.6515584 294
0.03388463 3.2235761 0.64137769 279
-0.32982472 3.4107733 0.63716018 261
-0.56006831 2.8494613 0.73599041 278.33334
-0.43815091 2.8690462 0.74729514 281.25
-0.38181278 2.9634809 0.73781639 263
-0.12468921 3.0214431 0.75385499 2663
-0.30108896 3.1824009 0.75897706 297
-0.24304381 3.1647167 0.75371563 317
-0.05000665 3.1477342 0.74199009 297
-0.4169206 3.2511158 0.73654425 283
-0.35801229 3.2533522 0.77059519 283
0.033028066 3.2080424 0.74546111 283
-0.52503562 2.8457458 0.80140877 251
-0.36038405 2.9470668 0.83986926 298
-0.26229784 2.9536278 0.87044036 297
-0.43976012 3.0376871 0.89643133 661
-0.29892418 3.0098341 0.88207579 271
-0.15781194 3.0904579 0.81234443 323
-0.064292982 3.0260997 0.83433068 1968
-0.34034654 3.1948595 0.83771986 307
-0.24603322 3.1495566 0.84456199 306.5
-0.15394244 3.1071978 0.8891834 309
-0.063078433 3.1564703 0.89235973 232
0.0046008527 3.189997 0.89451051 336
-0.45552862 3.2156734 0.84802651 290
-0.035310149 3.2088399 0.82294333 285
0.028084189 3.2583921 0.82703406 245
-0.3691332 2.9885287 0.95799732 1925
-0.28693625 2.9785225 0.95012164 253
-0.38343927 3.0727489 0.97485244 279
-0.27682844 3.0283823 0.95880878 271
-0.61625135 3.1961031 0.93558252 276
-0.46248057 3.1300223 0.99165177 289
-0.38833067 3.101002 0.90309274 269
-0.24578139 3.1754806 0.95814103 306.33334
-0.14730862 3.1043193 0.96475136 317
-0.071795553 3.1802351 0.97478855 309
-0.5471952 3.2366512 0.93677938 295
-0.13428161 3.2004216 0.90352213 307
-0.62466943 3.0763912 1.0756782 318
-0.44175127 3.0369482 1.0508319 370
-0.38252136 3.07217 1.0533676 219.5
-0.73707914 3.1045237 1.0107752 144
-0.65529799 3.1614928 1.0551612 247
-0.59048831 3.1512897 1.0880607 278
-0.49223623 3.1752503 1.0842956 269
-0.31284615 3.1518123 1.0648605 297
-0.29797211 3.1397438 1.0611799 291
-0.14726242 3.1516335 1.0533024 311
-0.64861047 3.2110343 1.0222533 280
-0.56860507 3.2102492 1.0152047 273
-0.26103142 3.2396204 1.0798179 277
-0.53337169 3.3176017 1.0322562 261
-0.37937537 3.0966563 1.1394001 257
