# .PCD v0.7 - Point Cloud Data file format
VERSION 0.7
FIELDS x y z intensity
SIZE 4 4 4 4
TYPE F F F F
COUNT 1 1 1 1
WIDTH 1
HEIGHT 74
VIEWPOINT 0 0 0 1 0 0 0
POINTS 74
DATA ascii
3.0692401 0.27644718 0.077204503 308.71429
3.1525166 0.25765359 0.13478589 265
2.962688 0.33723146 0.034883052 448
3.0729516 0.34327221 0.096141778 316.5
3.1533442 0.38788101 0.10045278 265
3.3597083 0.43744922 0.092756838 403.5
3.2656276 0.50553548 0.076093704 319.33334
3.3827608 0.49318558 0.053981733 299.60001
3.5011845 0.52078784 0.14983097 261
3.1374412 0.25285563 0.17307682 267
3.1589217 0.24951522 0.23612612 270
3.1105716 0.31735346 0.21718322 263.39999
3.1545997 0.33339494 0.21368164 267
3.4135084 0.43514216 0.22601825 324.5
3.4684243 0.44469133 0.18804964 251
3.2863009 0.49896055 0.16308601 339
3.4068401 0.51279473 0.23436317 301.33334
3.4952402 0.52340466 0.19731165 259
3.1354682 0.24228737 0.30798835 259
3.2157285 0.24650109 0.3723734 285.60001
3.1284688 0.32333022 0.30824569 255
3.2003078 0.32810989 0.37293723 260.60001
3.3843122 0.43238217 0.37426549 241
3.4567745 0.43750247 0.30363449 259
3.3993783 0.51170444 0.36274076 271
3.4659803 0.50827414 0.42440844 251
3.2335339 0.23631778 0.51530689 294.39999
3.2419944 0.33023208 0.52098894 278.33334
3.3578949 0.41252795 0.51053637 265
3.3847897 0.50658011 0.51974791 332
3.1200533 0.25717148 0.7122004 420
3.2388391 0.21849236 0.65177202 284.33334
3.1309285 0.37499288 0.70366293 389.00003
3.2687871 0.37423259 0.6279068 278
3.3067038 0.39765528 0.61415148 269
3.2499924 0.52805126 0.66723341 331.20001
3.3279369 0.52910161 0.61836994 249.66667
3.2701354 0.63525522 0.68595296 245
3.2321358 0.083725035 0.86213362 342.83334
3.3579891 0.040737368 0.75873744 289.33334
3.1021507 0.24506244 0.82487953 1799.0001
3.1599684 0.19955893 0.87478054 401
3.0995078 0.38816783 0.82099676 1911.3334
3.1651216 0.39193857 0.8800022 398
3.2399716 0.53687888 0.83864087 335.39999
3.3130517 0.55602205 0.78589964 268.33334
3.1406162 0.11589195 0.98658842 421.20001
3.1861174 0.053833727 0.95153677 421
3.1322067 0.26426956 0.97263354 427
3.1683216 0.20534444 0.99877423 435
3.1267409 0.38848549 0.98242402 439.5
3.181452 0.39878243 0.99455965 440.5
3.225353 0.53368181 0.98609126 379
3.3354604 0.61110705 0.99681127 295
3.1417153 0.14004308 1.0906754 433
3.1707301 0.13365281 1.1358254 335
3.1018546 0.24399878 1.1245685 1727.8572
3.1583703 0.20209999 1.0960386 453
3.1293359 0.37060952 1.1186633 455.66669
3.17097 0.40668127 1.151304 853.40002
3.2396359 0.52202618 1.128288 373
3.1067224 0.24760005 1.2323273 1469.6667
3.226768 0.27933794 1.3475879 345
3.3372943 0.22846837 1.3028424 319
3.1106791 0.38381526 1.2639043 1550
3.2070704 0.34723994 1.3437012 437
3.2701378 0.53428054 1.2159917 278
3.3541834 0.53411186 1.2394118 255
3.266856 0.23457831 1.4378656 399.33334
3.3606491 0.21926859 1.3905287 301
3.2653892 0.31608838 1.4138768 222.66667
3.2688699 0.25446108 1.5168583 347.5
3.3564651 0.19735987 1.5488631 251
3.2651913 0.32544476 1.5183592 285
