# .PCD v0.7 - Point Cloud Data file format
VERSION 0.7
FIELDS x y z intensity
SIZE 4 4 4 4
TYPE F F F F
COUNT 1 1 1 1
WIDTH 1
HEIGHT 53
VIEWPOINT 0 0 0 1 0 0 0
POINTS 53
DATA ascii
3.4380972 4.6373439 0.25571424 247
3.5073574 4.7050152 0.25358629 233
3.6786022 4.7463036 0.20225328 340.5
3.5926068 4.8560076 0.15962011 458
3.4798064 4.484859 0.44714642 260
3.723819 4.4868479 0.44434521 390
3.6225009 4.6444278 0.34641188 271
3.449465 4.6608114 0.35063922 420
3.5387466 4.7341638 0.34974265 428
3.8148782 4.6787481 0.34260643 502
3.3885279 4.5838757 0.55777359 434
3.4513083 4.5747252 0.55722225 412
3.6016502 4.5832281 0.5574261 243
3.6443369 4.6584091 0.45041502 255
3.3912599 4.5936632 0.6708799 490
3.5010819 4.5772028 0.67090601 253
3.8112049 4.6121745 0.67663193 251
3.6751926 4.6675663 0.6784178 326
3.5412493 4.5879369 0.79143751 324
3.6142483 4.567359 0.79149711 253
3.5429964 4.6720314 0.79822338 261
3.722723 4.4841895 0.97751564 270
3.5250804 4.5358849 0.95279145 302.66669
3.6688018 4.6247878 0.92385268 269
3.4640481 4.4943933 1.1604394 257
3.7247205 4.4833965 1.1758158 277
4.1621051 4.421802 1.1295698 267
3.696182 4.6272235 1.1931132 740
3.9016371 4.5160379 1.192227 271
4.0787158 4.5317636 1.0670584 281
3.5859284 4.4613819 1.2981621 297
4.1449389 4.4065447 1.3377554 380.5
4.200768 4.4831305 1.2097585 311
3.8568156 4.6003327 1.3412524 287
4.0620131 4.5167923 1.2037585 307
3.7768512 4.5972376 1.4775108 267
3.9859145 4.6256394 1.355864 253
4.0850177 4.5535173 1.4024224 265
3.6439612 4.7570057 1.4930363 273
3.6810293 4.8045678 1.3587084 291
3.9727333 4.8492303 1.3884852 317
4.160542 4.6313014 1.5216038 277
4.2443595 4.5004859 1.5090175 490
3.7793143 4.6945863 1.5683837 268
4.0136814 4.7238793 1.5222604 263
4.1003585 4.542964 1.6510466 269
3.9316223 4.6611366 1.6534917 560
4.1132975 4.6911707 1.6802542 272
3.9838278 4.8732114 1.6999525 279
4.0501819 4.7194085 1.833403 534
3.9263747 4.8631024 1.8479705 303
4.0613885 4.8081141 1.8534758 275
4.0218925 4.740006 1.9911411 293
