# .PCD v0.7 - Point Cloud Data file format
VERSION 0.7
FIELDS x y z intensity
SIZE 4 4 4 4
TYPE F F F F
COUNT 1 1 1 1
WIDTH 1
HEIGHT 66
VIEWPOINT 0 0 0 1 0 0 0
POINTS 66
DATA ascii
2.6091449 2.8234403 0.04522755 315.33334
2.7073355 2.8328044 0.0041336119 273
2.0367222 2.8683562 0.11472559 118
2.1655867 2.8906219 0.095840059 315.5
2.2574084 2.8819253 0.14080392 287
2.4527836 2.9252784 0.073943511 304.20001
2.6486232 2.8825164 0.096251801 291
2.4677858 3.0090175 0.12452337 257
2.2070434 2.8313313 0.227396 261.25
2.3020406 2.7746007 0.26768303 388.39999
2.4219868 2.8138258 0.2853013 424
2.6413922 2.8025353 0.23632196 329
2.1715109 2.9036176 0.21473581 296
2.3427093 2.8648028 0.18204933 414
2.4655633 2.8855505 0.2014818 377
2.43906 2.6944034 0.34291607 390
2.3365841 2.7474468 0.36679369 380.33334
2.4884882 2.7503119 0.40672898 359
2.6716168 2.8238726 0.37340239 343
2.436089 2.6857412 0.51837063 387.33334
2.3757384 2.7405772 0.5090248 368
2.4556246 2.7599144 0.47495249 410
2.6362281 2.772048 0.52491271 348
2.4296472 2.9870896 0.55996001 364
2.4601767 2.680927 0.64560241 357.80002
2.6017463 2.6979747 0.69897068 322
2.3807812 2.7134624 0.6153819 398
2.4279792 2.764185 0.69782877 257
2.6667376 2.8093414 0.67111945 357.5
2.3369887 2.8656127 0.70415092 321
2.4578938 2.9232032 0.714203 257
2.4476418 3.0155733 0.640782 253
2.3858213 2.6704941 0.84584147 2582
2.4549341 2.655077 0.80793273 1182.5
2.5768034 2.650305 0.85699153 653
2.3310094 2.8165545 0.86164117 840
2.4139919 2.7362914 0.77427721 309
2.6225495 2.7494636 0.78748608 309
2.3395677 2.8723247 0.78603697 321
2.4215772 2.8724785 0.832461 296.5
2.377934 2.6535382 0.95286465 331
2.4198947 2.5871844 0.96017146 332
2.584028 2.649117 0.94240439 394
2.3536623 2.8234496 1.0065664 367
2.4510632 2.7528996 1.0330744 311
2.5542243 2.7134938 0.99298239 312
2.3519299 2.895431 0.95989406 315
2.3783455 2.6505713 1.1377568 374
2.4421482 2.5947571 1.1347867 334
2.3603578 2.7735147 1.1599715 475
2.4281235 2.7137606 1.11191 329
2.5691962 2.7353826 1.132524 307
2.3445184 2.8906646 1.1368718 331
2.4575317 2.5986626 1.269249 349
2.3766615 2.7789757 1.2988248 422
2.4456198 2.7203267 1.2501016 336
2.6212785 2.8026934 1.3402014 259
2.3467546 2.8964183 1.2298247 287
2.5419953 2.8602829 1.3414861 283
2.5546591 2.6939585 1.4909927 350
2.497467 2.7694433 1.4072788 311
2.5822542 2.7476492 1.4160066 302
2.7434249 2.665633 1.52003 247
2.5143876 2.7747576 1.551759 320.5
2.6013603 2.7613037 1.5652082 285
2.7256608 2.7505271 1.5383631 307
