# .PCD v0.7 - Point Cloud Data file format
VERSION 0.7
FIELDS x y z intensity
SIZE 4 4 4 4
TYPE F F F F
COUNT 1 1 1 1
WIDTH 1
HEIGHT 82
VIEWPOINT 0 0 0 1 0 0 0
POINTS 82
DATA ascii
1.9046433 1.300488 0.1299201 309
1.9692439 1.3324534 0.12554663 265
1.8516638 1.3871473 0.12311151 287
2.0219846 1.4416766 0.11530861 269
1.8733202 1.7515792 0.11719884 276.20001
1.9576592 1.7084613 0.12556028 276
1.92424 1.3306186 0.22303811 272
2.0012355 1.3364933 0.248115 279.5
1.8808612 1.4064422 0.22231808 279.46155
1.9762354 1.3699467 0.22261414 284.75
1.9022741 1.6228564 0.2402387 300.75
1.7931232 1.7649119 0.21892819 395
1.8746247 1.7185105 0.21678565 271.88889
1.9866538 1.7283169 0.16488004 275
1.8392845 1.8137361 0.17186379 261
1.9083754 1.4418907 0.3661122 273.81818
1.9722952 1.3910998 0.38034645 272.5
1.8619089 1.6049318 0.37025252 270.36365
1.7943051 1.693796 0.42713082 249
1.8435783 1.7060204 0.34234238 265.90909
1.9591056 1.3451359 0.45851415 249
1.9206083 1.4774184 0.51161063 269.66669
1.9897816 1.4230177 0.5109179 269.20001
1.7721014 1.6313657 0.56522465 291
1.8646573 1.5626119 0.5150547 284.26669
1.7781374 1.6708385 0.51979887 271
1.8179154 1.6925927 0.47367978 279
1.8285335 1.3383834 0.71408552 659
2.0483153 1.3290095 0.68600023 398
2.140254 1.2931798 0.66546404 327
1.7457737 1.4455085 0.71266621 552.27277
1.9039695 1.4299864 0.66247123 386.375
2.0180998 1.401504 0.655267 298.75
1.6150496 1.547139 0.68582255 327.60001
1.7451789 1.5768142 0.66824448 328.33334
1.8466197 1.5326498 0.63376981 279.44446
1.7654994 1.6708231 0.64628637 285
1.7698936 1.3290112 0.83272851 2619
1.8903902 1.3265096 0.8259511 1524.5
1.9608471 1.3172553 0.78122181 392
2.17554 1.3223267 0.8138262 293
1.7075776 1.4271806 0.82813287 2463.5
1.8576586 1.4020865 0.79923701 969.25
2.0419791 1.418519 0.83614296 350
2.1271117 1.3783442 0.81407404 310
1.6873837 1.5635189 0.80508798 532.20001
1.6875763 1.6717159 0.85753465 261
1.8866241 1.3209471 0.92349499 537
1.9711046 1.309145 0.97562116 448
2.175288 1.3486836 0.96651858 341.66669
1.7457229 1.4647446 0.97710872 604.63635
1.8534123 1.3885084 0.97546434 521.76923
2.0484672 1.4198205 0.98419946 450
2.1815896 1.408896 0.94795299 277
1.6465635 1.5883899 1.0003729 516
1.699322 1.5599985 0.95720887 467.44446
1.6105828 1.6586562 0.98428893 481
1.6859918 1.6722559 0.94281363 275
1.8546606 1.3411379 1.1469324 2240
1.9750456 1.2984731 1.1422838 1019.6667
1.7366922 1.453248 1.1199101 1212.8667
1.8534021 1.3896177 1.1104701 697.40002
2.0480471 1.4092206 1.1423436 340
2.1025312 1.4907812 1.10156 293
2.2614617 1.3885998 1.0547372 261
1.6465747 1.5526075 1.1278867 517
1.6945953 1.5732398 1.110808 412.39999
2.045959 1.3430794 1.2876371 278
1.779735 1.4367402 1.2596086 651
1.8892111 1.4241924 1.2752836 395.5
1.9564967 1.3967928 1.2745692 359
1.7728565 1.521943 1.2769158 340.33334
1.8631606 1.3278651 1.4698493 338
1.9918877 1.2867478 1.4361759 336
1.7816139 1.4558502 1.441503 329.39999
1.8841239 1.3968419 1.4424939 311.85715
1.9632652 1.4426482 1.3990141 294
1.8292003 1.5199507 1.4079771 295
1.8802792 1.3375523 1.52283 303
1.9753658 1.2659696 1.5149872 331.5
1.7839562 1.4334843 1.5222692 294
1.8779981 1.3999691 1.5660124 331.5
