# .PCD v0.7 - Point Cloud Data file format
VERSION 0.7
FIELDS x y z intensity
SIZE 4 4 4 4
TYPE F F F F
COUNT 1 1 1 1
WIDTH 1
HEIGHT 57
VIEWPOINT 0 0 0 1 0 0 0
POINTS 57
DATA ascii
4.8944507 1.0020581 0.064583287 316
4.8913646 1.1401308 0.13019079 380
5.2498646 1.2466514 0.11308193 257
5.2918859 1.2639791 0.036371469 259
5.1733136 1.4090785 0.04251042 326.5
4.9180565 1.0199163 0.24359438 357
4.901475 1.1501973 0.24435112 375
5.0890069 1.1932114 0.28182018 322
5.1597052 1.0798067 0.28024456 326
5.0739841 1.3256943 0.28269747 356
5.1269226 1.2722819 0.19684866 299
5.0290384 1.4521177 0.24198601 329
5.0299482 0.90897453 0.36936042 202
4.918932 1.1620042 0.37111658 364
5.0774736 1.1193144 0.37112904 330
5.0277643 1.318002 0.37283847 322
4.9975395 1.4501075 0.37416574 268
5.0328064 0.9675523 0.51218641 374
4.9415016 1.1750365 0.51242226 402
5.0643988 1.0698928 0.56438106 260
4.9340267 1.3018086 0.56344187 368
4.9866495 1.3115778 0.46659017 368
4.9237309 1.434804 0.5167923 312
5.0362988 0.89122385 0.66303968 420
4.9798923 1.0144962 0.66192675 410
4.9637723 1.1879768 0.66482198 299
4.8947349 1.2956102 0.66335642 307
4.897552 1.433899 0.6673677 396
4.9234004 0.85768825 0.86753058 2889
4.9855003 0.8754409 0.76503491 309
4.9056416 0.98899257 0.81473744 1366
4.9085975 1.1162395 0.76466227 362
4.9651427 1.1714444 0.84452033 301
4.7824512 1.2733377 0.86621976 2707
4.8436065 1.2859594 0.76448226 319
4.8803496 1.4355654 0.8270365 412
4.9894552 0.86354947 0.98767185 321
4.9660115 0.9921571 0.9887991 325
4.9682555 1.11735 0.99367023 265
5.1712894 1.1114905 0.96029389 312.5
4.9125295 1.314702 0.99490595 305
5.0134478 1.2150886 1.0033475 295
4.8104563 1.4206613 0.98716354 309
5.0386186 0.86616147 1.1108416 303
5.0054135 0.9939602 1.1104659 307
4.8469629 1.082041 1.0900794 322
4.9010887 1.3160775 1.1094989 309
5.0180545 1.2210485 1.1222652 297
4.8086433 1.4245951 1.1017307 313
4.9236012 0.83902794 1.2088735 2193
4.8652081 0.95818835 1.2034521 2301
4.8072453 1.2939053 1.2107146 2433
4.9861822 1.2175761 1.2374332 393
4.7644715 1.4151597 1.2108996 501
4.9184523 1.334716 1.4776428 410
4.987042 1.3498133 1.3686464 289
4.9887652 1.4949462 1.5055438 243
