# .PCD v0.7 - Point Cloud Data file format
VERSION 0.7
FIELDS x y z intensity
SIZE 4 4 4 4
TYPE F F F F
COUNT 1 1 1 1
WIDTH 1
HEIGHT 52
VIEWPOINT 0 0 0 1 0 0 0
POINTS 52
DATA ascii
4.4764066 -3.1704559 0.099584095 266
4.5882049 -3.111443 0.056383014 316
4.7175846 -3.0505891 0.075970106 341.33334
4.8968635 -3.0217824 0.11993688 260
4.988493 -3.0383577 0.11569007 238
4.8870716 -2.9957261 0.041207433 350
5.0589838 -2.9411516 0.072979502 347
5.0130553 -2.8084495 0.063234992 366.66669
5.1511059 -2.7569354 0.069742709 342.5
5.2920933 -2.7198997 0.076649204 354
5.4264984 -2.6559701 0.014670074 376
4.6020684 -3.1108365 0.21544765 294
4.7702379 -3.0815902 0.21001786 312
4.9132967 -3.018044 0.2523438 294
4.966167 -3.0354214 0.29808745 132
5.0463924 -2.8862824 0.29514664 344
5.1053319 -2.9553964 0.19913112 374
4.9695091 -2.8342893 0.20332156 382
5.1542444 -2.7889957 0.26091453 350.66669
5.3228979 -2.7373979 0.24056773 359
4.5034695 -3.2073979 0.35657984 268
4.6817627 -3.1702819 0.40315959 287
4.8045902 -3.1040518 0.40131956 276
5.2189627 -3.0049188 0.39824104 332
5.0517259 -2.8950024 0.39644843 354
5.2172155 -2.8246212 0.39482188 301
5.3720551 -2.7612078 0.39346403 321
4.7322426 -3.1736217 0.50810987 288
4.8483095 -3.1047518 0.50732994 330
5.0414667 -3.0856464 0.50927377 236
5.0836048 -2.9197001 0.50487059 340
5.2496133 -2.8708272 0.50589931 328
5.2414088 -2.8065829 0.50397217 348
5.4509377 -2.8287811 0.50781977 314
4.7155828 -3.3577008 0.62698698 310
4.5666342 -3.2681372 0.61877286 330
4.7266221 -3.2355676 0.62169856 314
4.8322158 -3.1523705 0.62102407 348
5.0540791 -3.1086147 0.6257602 80
5.287529 -3.0259147 0.62964165 322
5.0921092 -2.9301472 0.61963046 288
5.1171145 -2.9505363 0.74135792 376
5.2725992 -2.8921633 0.68524313 337
5.3188591 -2.8353014 0.68486416 333
5.1403952 -2.9698241 0.86901796 352
5.2742567 -2.9009781 0.87402749 360
5.3521824 -2.8388348 0.87579966 310
5.1455417 -2.9779863 1.0005314 356
5.3249383 -2.9355245 1.0133125 374
5.1465063 -3.1891873 1.1541729 182
5.1807036 -3.0044224 1.1413007 336
5.3440323 -2.9516997 1.1545458 294
