# .PCD v0.7 - Point Cloud Data file format
VERSION 0.7
FIELDS x y z intensity
SIZE 4 4 4 4
TYPE F F F F
COUNT 1 1 1 1
WIDTH 1
HEIGHT 65
VIEWPOINT 0 0 0 1 0 0 0
POINTS 65
DATA ascii
2.656435 0.74504346 0.062921837 336
2.7803888 0.73451138 0.081483811 307.66669
2.8645132 0.73549443 0.053489119 303
2.6600778 0.79589009 0.070977613 388.66669
2.7489977 0.79398894 0.1197369 265
2.9776542 0.76039779 0.083488375 271
2.2198479 0.95383453 0.10864937 421.5
2.2760746 0.93747503 0.13149297 385.5
2.6750321 0.72126353 0.27422184 243
2.7192495 0.73411071 0.2157362 281.16669
2.3991323 0.89874268 0.18403071 260
2.6883764 0.78701967 0.23511134 259
2.7311389 0.79726642 0.19709814 259.66669
2.3642931 0.98901534 0.20998336 277.40002
2.4520471 0.94545722 0.237625 288.54547
2.3552015 1.0577614 0.1844348 275
2.6717772 0.71588665 0.35146868 240.75
2.7070081 0.73685467 0.36234102 239
2.6528134 0.7940169 0.36946878 278.875
2.4771571 0.97540754 0.36028647 267.53336
2.6472361 0.71590793 0.53049678 288
2.7213931 0.7463308 0.4635227 273
2.5194986 0.84633118 0.56191659 308
2.5942087 0.80670679 0.50785184 279
2.3744373 0.9966836 0.45736074 376
2.4968615 0.94716203 0.50570333 281
2.5824344 0.91636366 0.51560003 279.66669
2.50963 1.0567155 0.51653528 269
2.5632429 1.077895 0.5760873 269
2.3697011 0.67451215 0.66685802 406.20001
2.4660349 0.73524535 0.66049486 506.33334
2.6021886 0.70656681 0.66651213 298.33334
2.3696678 0.82621574 0.67574513 547.40002
2.456548 0.83015698 0.64618742 429
2.3789711 0.90033281 0.71513897 569
2.4878776 0.95555675 0.66197091 336.5
2.5506225 1.0678401 0.6321969 283
2.3612659 0.71179003 0.8379631 3099
2.4426625 0.69791573 0.81011569 1284.75
2.6550241 0.6766175 0.86465716 261
2.3594282 0.80750632 0.81744117 2167.5715
2.4256949 0.83011144 0.82085389 532.60004
2.3930876 0.90841168 0.77472526 553
2.4444382 0.93158364 0.8147949 877
2.381475 0.71923292 0.98715103 436
2.486465 0.69231099 0.98565072 405.11111
2.5835721 0.72280502 0.91573727 334
2.3356085 0.75741398 0.97892141 459
2.4518774 0.84814382 0.97609776 512.71429
2.4484324 0.93096817 0.96748447 435.33334
2.3967936 0.73053288 1.1682417 587
2.4595027 0.71089602 1.1170969 425.33334
2.4471691 0.83821356 1.1391931 515.79999
2.481194 0.94255072 1.1330649 823.5
2.4995103 0.71266836 1.2611874 373.33334
2.510083 0.79358077 1.2967842 302.33334
2.569828 0.87277275 1.309701 268
2.4920993 0.94625854 1.2312448 686.5
2.5133502 0.72686279 1.4158677 384.5
2.6242535 0.69231558 1.4477307 329.11111
2.5022163 0.79346699 1.4207449 372.5
2.6078939 0.80963361 1.4187851 290.33334
2.5274119 0.73105335 1.5072612 325
2.5600226 0.67221439 1.5131636 364
2.5994985 0.83469677 1.5570717 255.66667
