# .PCD v0.7 - Point Cloud Data file format
VERSION 0.7
FIELDS x y z intensity
SIZE 4 4 4 4
TYPE F F F F
COUNT 1 1 1 1
WIDTH 1
HEIGHT 109
VIEWPOINT 0 0 0 1 0 0 0
POINTS 109
DATA ascii
1.7638344 -1.526508 0.11244296 251
1.8704622 -1.5834793 0.11414957 356.33334
1.8288029 -1.4898832 0.14521308 237
1.7980232 -1.5898726 0.23724395 396
1.8521954 -1.6226593 0.19200818 404.80002
1.5517253 -1.3996274 0.22062129 259.66669
1.7083595 -1.4175233 0.23059709 250.71429
1.8185914 -1.469871 0.19856997 255
1.4492927 -1.2497144 0.22561061 280.66669
1.2375557 -1.1002673 0.26265511 317.71429
1.1703463 -1.017175 0.21306452 329.66669
1.2777373 -0.94594163 0.24058603 267.60001
1.4300395 -0.94209051 0.22976929 291.75
1.2798492 -0.8718698 0.25787073 327.4375
1.3994325 -0.8754549 0.25826469 308.20001
1.7999097 -1.5969146 0.30326799 394
1.829595 -1.6326399 0.38208079 412.66669
1.5617491 -1.4222776 0.36141306 257.5
1.7167294 -1.3791518 0.34650025 263
1.601148 -1.3106745 0.41065237 271.66669
1.2565918 -1.1206385 0.38356411 312.5
1.3897667 -1.166054 0.35802415 286
1.1514925 -0.96570683 0.34580284 577.66669
1.2568438 -0.96202099 0.3911956 300.5
1.4236902 -0.95321882 0.41084364 302
1.1928535 -0.82438356 0.35366213 2066
1.27285 -0.83872271 0.35346368 877.54547
1.3836418 -0.8637923 0.37303448 336
1.8544779 -1.6663754 0.54710102 255
1.819751 -1.6267666 0.47000939 420
1.5634817 -1.4316677 0.51711398 270.5
1.1968883 -1.2304181 0.53882086 398
1.4354579 -1.2279068 0.55242872 271
1.5514077 -1.2512562 0.50156337 295
1.6852188 -1.3081739 0.49102044 285.66669
1.2247999 -1.0925181 0.52230442 327.11111
1.4310012 -1.1257873 0.52994442 290.33334
1.5076662 -1.1982601 0.59485763 307
1.1720338 -0.96003282 0.58663607 403
1.2772722 -0.96966493 0.52065635 319.64288
1.4349623 -0.96808892 0.50712788 283.70001
1.5654141 -1.0471792 0.58332825 271
1.3189161 -0.84857124 0.54552668 383.20001
1.4171742 -0.87156057 0.50561392 300.375
1.5704398 -1.7166203 0.69057071 386
1.8521 -1.6687893 0.67928857 267
1.8623375 -1.6185777 0.71055329 314.33334
1.5415301 -1.4130201 0.66995519 267
1.6152744 -1.2288498 0.62961304 307
1.1842501 -1.0696062 0.65786999 286
1.4686128 -1.150471 0.68771458 301
1.5714095 -1.1805861 0.70626563 308
1.1501402 -0.94742388 0.6851927 332.80002
1.2338052 -0.94249517 0.66794068 308.375
1.4544687 -1.0151153 0.60716903 245
1.2822466 -0.86484861 0.6653735 323.10001
1.3665894 -0.83515358 0.67986786 331.77777
1.5453154 -1.6738849 0.76038539 402
1.8454679 -1.6663527 0.81972581 262
1.4858227 -1.5806382 0.86606961 418
1.5099515 -1.6212583 0.79960203 410
1.882733 -1.6122428 0.81499791 397
1.4897239 -1.3623484 0.89122939 263
1.5207412 -1.3942399 0.80688542 262.33334
1.4360996 -1.0726457 0.83585155 315.5
1.5308447 -1.1338649 0.80233449 309
1.152295 -0.95469725 0.81901616 223.5
1.2304788 -0.91668832 0.81449217 265.14288
1.3529458 -1.0211927 0.84579402 435
1.1280313 -0.88571459 0.8428247 176
1.287064 -0.86798525 0.83086455 238.71429
1.3759234 -0.82626981 0.81652862 236
1.902071 -1.6582581 0.96013832 269
1.4510221 -1.5236113 0.94964135 244
1.8175056 -1.6418418 0.9867512 267
1.4569113 -1.4015995 1.0015464 265
1.1772995 -0.90195 0.97850287 162.5
1.2180687 -0.90806502 0.90682995 170
1.417127 -1.0241216 0.9692139 317
1.2503946 -0.87722176 0.93889362 204
1.7852262 -1.6132191 1.1778783 259
1.8545531 -1.6371877 1.1116992 272
1.3418264 -1.3591152 1.091406 259
1.4511261 -1.3802088 1.0952433 269.66669
1.2907913 -1.2825476 1.1513389 257.5
1.4691055 -1.3472306 1.16459 265
1.1631961 -1.1081877 1.1566083 375
1.2273327 -1.1918973 1.1851401 309
1.2645018 -0.87444639 1.1243253 151.66667
1.704591 -1.7337561 1.2837347 322.5
1.7537932 -1.5829661 1.2733529 304
1.886673 -1.6288779 1.265746 257
1.4388269 -1.3183277 1.2866108 286
1.1971025 -1.1444707 1.2255731 300.5
1.6982558 -1.7134892 1.3868315 291
1.6059952 -1.5858086 1.4565173 298.5
1.7241328 -1.557198 1.4357038 299.5
1.8343048 -1.5820932 1.4306357 290
1.5387809 -1.4931349 1.496143 249
1.3806285 -1.264927 1.4172262 300.80002
1.6998227 -1.5214889 1.5808024 295.39999
1.8286655 -1.5820909 1.5782506 284
1.4486661 -1.3700202 1.5127519 426
1.528051 -1.4734235 1.5318584 260
1.6582956 -1.4999858 1.6383069 309
1.7737242 -1.6765584 1.7043815 322
1.842688 -1.6552409 1.7388299 304
1.7583884 -1.5724195 1.7305709 298.33334
1.8076905 -1.6064924 1.7764832 404
