# .PCD v0.7 - Point Cloud Data file format
VERSION 0.7
FIELDS x y z intensity
SIZE 4 4 4 4
TYPE F F F F
COUNT 1 1 1 1
WIDTH 1
HEIGHT 70
VIEWPOINT 0 0 0 1 0 0 0
POINTS 70
DATA ascii
3.2245114 -0.029137099 0.07666745 341
3.3365622 -0.044873375 0.055475354 291
3.1073322 0.086117998 0.019424349 451
3.1870382 0.064943969 0.094331518 276.45456
2.8297684 0.26571783 0.12894055 285
2.955236 0.18232773 0.050787181 489
3.0485601 0.18451729 0.08706557 296.5
2.6762476 0.33193818 0.05551289 363
2.7822526 0.36239615 0.10257796 329
2.8875415 0.35424119 0.11468045 280.33334
3.279804 -0.05443706 0.16460082 261
3.11415 0.09264686 0.24515675 259.66669
3.1717353 0.041831415 0.20444179 258.11111
2.8449821 0.28275988 0.17424378 272
2.8719025 0.28757262 0.22264886 267
3.1028724 0.16914314 0.2283327 268.5
2.835938 0.37124693 0.19711189 269.22223
2.8882353 0.41233119 0.22793898 275.28574
3.0720782 0.052858006 0.36013734 266.75
2.9125211 0.27981824 0.36034063 270.14288
3.0708654 0.17113157 0.36805931 264.14288
2.900928 0.38250297 0.36088407 274.88889
2.9769733 0.074560367 0.57294613 278.16669
3.0331242 0.065147847 0.49344838 259.42859
2.9480693 0.23788445 0.53615743 280.55557
3.0356979 0.19627832 0.48359209 281.5
2.9424546 0.36735547 0.52433521 272.55557
3.0254531 0.39365792 0.55988038 262
2.8138785 -0.0023830056 0.65691614 365
2.8785486 -0.073920585 0.63396299 315
2.8016593 0.075342909 0.69893736 639.66669
2.9247787 0.10074648 0.66019034 299
2.7940817 0.21371493 0.68030167 471.72729
2.8200626 0.32345137 0.69089258 423
2.9308014 0.36903858 0.65898025 306.5
3.0603881 0.32643867 0.72246325 269
2.8173571 -0.012587359 0.87537134 274
2.9035444 -0.0085011199 0.79450595 286
2.7887425 0.08537779 0.83355957 1007.0001
2.8826506 0.043009568 0.88891566 425
2.7737494 0.20959494 0.82122689 2149.5
2.8608727 0.1824933 0.88589156 541
2.8051763 0.33214945 0.83031785 1008.5
2.9393353 0.3612901 0.80559963 406
2.8573718 -0.015735261 0.94966245 235
2.7723143 0.084354535 0.96739352 547.85718
2.860913 0.045570932 0.95057774 475
2.8313684 0.22604899 0.97956431 490
2.8678055 0.17825353 0.98743623 499
2.8386312 0.34658977 0.9851222 382
2.8593097 0.34946692 0.99007922 392
3.0414267 0.33450326 0.96176147 432
2.7836001 0.081632987 1.1068373 1085.4445
2.7893004 0.22379309 1.1148169 1877.8572
2.8597424 0.20925373 1.0872508 536
2.8464098 0.37821344 1.0895377 397
2.9239435 0.33830747 1.1088629 541
2.8483303 0.10151401 1.283512 319
2.8737264 0.12989448 1.2253495 337
3.0248168 0.10062765 1.3115227 314
2.8171144 0.22329402 1.2088732 684
2.9217606 0.21574092 1.2900915 341
2.864924 0.33868933 1.2295046 1053
2.9209716 0.13807654 1.3789283 282
3.0272424 0.092488162 1.4188131 344
2.9487555 0.23036243 1.4219064 316.14288
3.0082047 0.16646668 1.4829377 245
2.939738 0.30149308 1.4600676 372
3.0742893 0.087550312 1.5085741 323.5
2.960824 0.28409812 1.5352725 342
