# .PCD v0.7 - Point Cloud Data file format
VERSION 0.7
FIELDS x y z intensity
SIZE 4 4 4 4
TYPE F F F F
COUNT 1 1 1 1
WIDTH 1
HEIGHT 63
VIEWPOINT 0 0 0 1 0 0 0
POINTS 63
DATA ascii
3.8044078 0.87589014 0.12935933 392
3.4932413 1.0498924 0.14688028 384
3.7670193 0.9524256 0.074481748 349.14288
3.3997459 1.1207875 0.023309797 323.5
3.515363 1.1201756 0.090809055 318.80002
3.6262653 1.089438 0.09299317 265
3.8239169 0.87350786 0.20945719 271
3.7060401 0.92989725 0.22318952 377.33334
3.7561159 0.94978559 0.18389128 372
3.552752 1.135576 0.22365184 385.14288
3.6038272 1.0896171 0.19046415 243
3.7935758 0.86826211 0.40087694 192.5
3.7265975 0.95951396 0.38121909 278.39999
3.7865033 0.94326401 0.36880398 342.5
3.567349 1.0817419 0.35602665 340.80002
3.6096344 1.1058468 0.43547475 243
3.7809303 0.85553801 0.54663026 269.25
3.7003326 0.98017204 0.54546547 292.83334
3.767314 0.97821581 0.54866779 245
3.6364126 1.1042585 0.54520011 339.5
3.7025962 0.87212896 0.71182561 365
3.7726181 0.82697457 0.70379794 322.5
3.5826674 0.96414721 0.73012567 441
3.6850605 0.97802389 0.68685198 381.83334
3.5885561 1.060272 0.73475254 419
3.612004 1.1034111 0.68552577 346
3.7995267 1.2578392 0.6795668 247
3.5620189 0.83997011 0.84420943 3283
3.6480365 0.87713528 0.81577301 1498
3.8054059 0.82726902 0.83383846 251
3.559562 0.97297668 0.84179938 2316.6001
3.5900102 1.1161954 0.8198905 2227
3.6127503 1.0628717 0.8199417 393
3.7979712 1.2241648 0.80753386 308
3.6653693 0.84557056 0.94378352 358.25
3.573565 0.9933629 0.97986788 402
3.6469448 0.99285454 0.94906032 355.5
3.7187307 1.1662401 1.0159892 325
3.7675869 1.1793411 0.93413246 319
3.880085 1.2440777 0.95457661 255
3.5869038 0.66934741 1.1366379 293
3.6016505 0.66522735 1.1397611 289
3.3060629 0.78049779 1.1610423 319
3.5850511 0.80338919 1.1440799 1463
3.6653304 0.82002634 1.1036716 352.5
3.5888953 0.94367182 1.1103847 372
3.6474247 1.0100516 1.136446 684.60004
3.6937451 1.1422116 1.1241978 265.75
3.893172 1.2428175 1.050903 287
3.3925302 0.70425749 1.2607195 186
3.516058 0.73668832 1.2103734 319
3.5939019 0.83900309 1.2368097 2157
3.6845248 0.8325299 1.3047369 299
3.6227198 0.99323058 1.2560189 432
3.7554443 0.9905647 1.2883534 271
3.4081628 0.78304189 1.3552604 311
3.6080325 0.86467695 1.4220046 290
3.7849674 0.88214225 1.3818209 263
3.5468044 0.95843178 1.456598 385
3.6514122 0.95616341 1.3972193 301.5
3.6922135 0.86946303 1.5396109 264
3.5920291 0.93559062 1.5584486 330.5
3.6562617 1.0349481 1.5446893 249
