# .PCD v0.7 - Point Cloud Data file format
VERSION 0.7
FIELDS x y z intensity
SIZE 4 4 4 4
TYPE F F F F
COUNT 1 1 1 1
WIDTH 1
HEIGHT 74
VIEWPOINT 0 0 0 1 0 0 0
POINTS 74
DATA ascii
8.4588346 -2.8439336 4.1650848 392
8.3952265 -2.7674305 4.3361435 384
8.5261831 -2.394392 4.3370938 370
8.5205793 -2.1198518 4.2981005 374
8.4628696 -2.8323371 4.3761792 376
8.524991 -2.5719936 4.3623562 366
8.6215591 -2.6363971 4.4144702 344
8.6963606 -2.3777392 4.4101243 324
8.6494293 -2.1969547 4.3653297 360
8.3937664 -2.7749088 4.5386763 386
8.477375 -2.8244479 4.585381 350
8.542057 -2.5854766 4.5757022 362
8.6496916 -2.6325495 4.6328082 324
8.5348454 -2.3846827 4.5418243 382
8.7007179 -2.3873301 4.6193867 324
8.5386267 -2.1327567 4.5085073 362
8.6346664 -2.1810718 4.5599313 348
8.3787403 -3.0174656 4.7708483 344
8.3990107 -2.7847455 4.737288 364
8.4933596 -2.8171246 4.788219 326
8.5357971 -2.5917373 4.7698569 338
8.5356855 -2.3727896 4.7350559 336
8.5312767 -2.139164 4.6989517 364
8.6546869 -2.1743307 4.7643628 356
8.4062738 -2.7954102 4.9273105 308
8.6765299 -2.628309 4.843863 298
8.5319729 -2.3597324 4.9155631 318
8.6920853 -2.3932881 4.8143301 298
8.6065645 -2.1585617 4.9232373 341
8.3814383 -3.0055745 4.9555507 300
8.3830557 -2.7956901 5.0893312 274
8.5280218 -2.8162849 4.9919081 272
8.5919275 -2.6035314 4.9859982 246
8.687499 -2.4004877 5.0009289 280
8.5387983 -2.3497951 5.0911965 150
8.5410519 -2.1585789 5.0624695 330
8.3861151 -2.9945557 5.1306677 266
8.5003538 -2.7943165 5.1498041 270
8.5465384 -2.6118841 5.1400471 194
8.6216745 -2.1650915 5.1871586 310
8.36971 -2.975961 5.2817426 286
8.456233 -2.7980196 5.2913737 273
8.5180731 -2.611423 5.2887468 282
8.5674105 -2.3461449 5.2687311 322
8.6143951 -2.1618178 5.3383961 336
8.776516 -1.9961857 5.3297291 278
8.9513416 -1.9865685 5.2567387 308
8.4082832 -2.9777503 5.4514208 264
8.3847504 -2.8175817 5.4714003 222
8.5452204 -2.7848969 5.486341 320
8.5217314 -2.6212807 5.4411445 278
8.5406322 -2.3212862 5.4641924 307
8.6197882 -2.1618721 5.4826012 312
8.6635542 -1.9874849 5.5483847 270
8.7400417 -1.9965659 5.4588561 252
8.4201326 -2.9698668 5.5915141 276
8.3507814 -2.8190148 5.6356058 210
8.5475416 -2.7736182 5.6214852 286
8.5370026 -2.6349769 5.5875387 280
8.5463457 -2.1950467 5.6289539 292
8.6759033 -2.1217754 5.5762801 286
8.6732359 -1.9988754 5.6727295 296
8.3988171 -2.9384768 5.7899513 228
8.3731079 -2.8452675 5.8345428 180
8.4943476 -2.7325249 5.8006954 282
8.5446405 -2.6464565 5.7119288 286
8.5652304 -2.3000913 5.7579846 280
8.546237 -2.2134542 5.8116956 294
8.6951218 -2.1044235 5.8028216 310
8.372076 -2.8847425 5.9668159 212
8.540761 -2.6638958 5.8955431 292
8.576786 -2.2608409 5.9627209 308
8.6689644 -2.0361118 5.9193625 289
8.5559464 -2.7089202 6.0397234 290
