# .PCD v0.7 - Point Cloud Data file format
VERSION 0.7
FIELDS x y z intensity
SIZE 4 4 4 4
TYPE F F F F
COUNT 1 1 1 1
WIDTH 1
HEIGHT 59
VIEWPOINT 0 0 0 1 0 0 0
POINTS 59
DATA ascii
3.6744139 -3.1829526 0.10572913 283
3.9145067 -3.2293859 0.029004782 273
4.4382672 -3.1938252 0.063451141 312
3.6762137 -3.1030977 0.067505509 307
3.8609843 -3.0718617 0.036639363 304
3.9046516 -3.1001248 0.09467721 308
4.093996 -3.0931714 0.052348435 281.5
4.3139582 -3.0892131 0.14551954 334
3.7362747 -3.101336 0.20715344 322
3.919816 -3.0990126 0.20012805 327
4.0967817 -3.0768917 0.19320607 334
4.2760282 -3.0508504 0.2258226 396
3.9581661 -3.112179 0.3613987 262
4.086154 -3.0492873 0.35859981 377
4.2585087 -3.0231972 0.35615674 347
4.2234092 -3.3200762 0.50771081 128
4.113625 -3.0565426 0.49718958 388
4.2846956 -3.028409 0.49804604 384
4.0788908 -3.3487866 0.71770442 263
4.2387443 -3.3111925 0.72175276 279
4.1994405 -3.289216 0.61022866 308
4.2687254 -3.1590943 0.71359444 368
4.2784858 -3.0941677 0.6028958 312
4.4663539 -3.1446409 0.72134519 279
4.0654759 -3.3259249 0.82680821 283
4.2469273 -3.3069887 0.83569753 275
4.3261037 -3.1937604 0.83180904 305
4.4766698 -3.1418293 0.83720666 299
4.1008301 -3.345633 0.9467622 287
4.0098362 -3.2551074 1.0485328 323
4.213109 -3.2678328 0.94791245 265
4.3529906 -3.2041011 0.95295095 291
4.4511428 -3.1121955 0.95273602 275
4.1156807 -3.3106735 1.1868238 331.5
4.3725457 -3.3244619 1.0897938 273
4.2766109 -3.242198 1.1550114 291
4.2534647 -3.0807428 1.0932148 277
4.4641562 -3.0821056 1.0739793 280
4.1141877 -3.3230662 1.3138654 267
4.2470274 -3.2622647 1.3226807 279
4.3980145 -3.206305 1.3353232 283
4.5158601 -3.1387672 1.2121584 301
4.0062413 -3.21859 1.4097713 263
4.1816792 -3.1975484 1.4327461 265
4.4218283 -3.2083669 1.4712847 294.5
4.4862876 -3.0952961 1.4649746 386
4.5151052 -3.1023781 1.4705828 366
4.0110116 -3.2115426 1.5356934 241
4.3745384 -3.1706731 1.5911633 255
4.0924115 -3.1083896 1.5949792 286.5
4.3021088 -3.1101487 1.5685124 334
4.4686456 -3.0725152 1.5921049 265
4.5342278 -3.1196072 1.6113639 399
4.4779482 -2.9112597 1.5687455 292
4.1565356 -3.324847 1.7123818 347
4.2059569 -3.2094934 1.6999708 301
4.1601529 -3.008831 1.6543734 296
4.2075691 -3.0266192 1.6668791 263
4.076633 -3.2719331 1.8186393 287
