# .PCD v0.7 - Point Cloud Data file format
VERSION 0.7
FIELDS x y z intensity
SIZE 4 4 4 4
TYPE F F F F
COUNT 1 1 1 1
WIDTH 1
HEIGHT 188
VIEWPOINT 0 0 0 1 0 0 0
POINTS 188
DATA ascii
-0.19077227 -3.1915383 0.11749108 265
-0.36169076 -3.1027598 0.11694459 272
-0.22621998 -3.122113 0.10195213 354.33334
-0.057136148 -2.8536468 0.14004375 245
0.052066997 -2.8610852 0.13652132 251
0.15942392 -2.85569 0.13375258 259
-0.03981173 -2.8091385 0.11409058 414
0.065855831 -2.8412619 0.1084978 248
0.17220891 -2.8418097 0.1053149 259
0.25600165 -2.5841906 0.12505874 251
0.34431645 -2.5988669 0.14726916 260
0.3973341 -2.5208845 0.13191618 365.5
-0.20063865 -3.1920817 0.21936761 256
-0.47007042 -3.1174612 0.22334667 247.75
-0.35146376 -3.0807438 0.21607982 244.40001
-0.26524833 -3.088166 0.23064652 303.14288
-0.12383135 -3.046243 0.25924003 356
-0.061114024 -2.897279 0.23174632 257.80002
0.069692947 -2.8995435 0.22905472 259.18182
0.15203246 -2.9102888 0.17385474 271
-0.017676413 -2.8208671 0.21811992 255
0.091861352 -2.8194253 0.22178836 260.75
0.19738311 -2.815146 0.2185131 268
0.23868982 -2.58722 0.217098 297.80002
0.36842558 -2.5936458 0.22861469 273.75
-0.20695905 -3.1810594 0.37532765 245
-0.36483419 -3.0621829 0.38057321 269.20001
-0.24808975 -3.0919724 0.37662902 326.88889
-0.11728709 -3.0965176 0.37227857 318.33334
-0.04672727 -2.8941059 0.36907429 262.60001
0.090020441 -2.8931468 0.36408955 267.85715
-0.0059034526 -2.838484 0.32190296 269
0.08281222 -2.8163419 0.37001067 268.75
0.21453846 -2.8125224 0.35976583 277.66669
0.25943863 -2.5776443 0.38902286 307
0.38245967 -2.5882163 0.36873627 266.33334
-0.21888492 -3.163249 0.53268528 248
-0.35378659 -3.0440083 0.52349108 237.60001
-0.25301364 -3.1004922 0.50073045 334.25
-0.10844488 -3.1374884 0.51149887 258
-0.043920279 -2.8928583 0.52670282 269
0.10072237 -2.8835609 0.5205099 270.66669
0.055759739 -2.787703 0.51675475 271.66669
0.19423716 -2.785707 0.51144099 284
0.27192909 -2.5788474 0.51344216 307
0.39539862 -2.599247 0.53581864 278.60001
0.22606462 -2.5469663 0.54762894 307
-0.21729159 -3.1980014 0.65026325 258
-0.36287543 -3.0668483 0.64629334 312.16669
-0.22756276 -3.1078227 0.66853034 288.75
-0.09217038 -3.1244609 0.67224038 264.33334
-0.04568556 -2.8796182 0.67750061 277.5
0.097940519 -2.8781228 0.67114037 281
0.07998725 -2.758508 0.67751962 292.60001
0.21082056 -2.7513168 0.68402594 295
0.26972541 -2.5610855 0.62057221 310.33334
0.38527662 -2.5769503 0.65705222 299.5
0.24594252 -2.5365038 0.69520181 321.66669
0.3498047 -2.5282466 0.71003509 321
-0.30148253 -3.1770995 0.83284855 243
-0.21750233 -3.181541 0.79134446 258
-0.35498965 -3.0993135 0.80473083 293.14288
-0.22544447 -3.098526 0.81750154 252
-0.099524848 -3.0972679 0.85965991 273.66669
-0.048049808 -2.8800707 0.81119215 287.5
0.10872161 -2.8701732 0.7907604 293.66669
0.077001721 -2.7493691 0.8289389 285.33334
0.22454764 -2.7249062 0.8405748 289.5
0.221935 -2.552824 0.77860332 321
0.27181715 -2.53406 0.83587086 323.5
0.38000664 -2.5195422 0.82963294 318
-0.30592737 -3.1918297 0.9520095 270
-0.22037037 -3.1847293 0.94520414 272
-0.3638145 -3.0971324 0.94713938 308.20001
-0.23843893 -3.0726051 1.0164841 273
-0.098028958 -3.06797 0.99357086 278
-0.036262941 -2.8740025 0.93860519 290.33334
0.13076439 -2.8775744 0.9427529 292
-0.084739149 -2.8467891 0.98387325 317
0.058675461 -2.8450744 0.97591275 294.33334
0.27053425 -2.7298994 0.97617382 291
0.10197414 -2.657464 0.9326542 389
0.21433243 -2.5921068 0.96305168 327.75
0.28683913 -2.5352015 0.99616128 323
0.37793159 -2.5190337 0.98920298 329.5
-0.34449103 -3.1804159 1.1147726 277.5
-0.21862161 -3.1597571 1.1006885 287
-0.45166865 -3.0979459 1.1460944 326
-0.40191445 -3.0850103 1.0844872 248.66667
-0.23617902 -3.0450647 1.1556534 274.5
-0.081409425 -3.0337787 1.1417465 283
-0.010803491 -2.8523607 1.1285161 293
0.12962012 -2.8579111 1.1222856 297.66669
-0.060334139 -2.8455036 1.0803297 290.33334
0.057142615 -2.8378272 1.1579914 292
0.25672746 -2.5938745 1.1275663 304
0.37650999 -2.51984 1.1220376 325
-0.35618198 -3.165988 1.2664435 271.66669
-0.21956435 -3.1507742 1.3066554 295
-0.45405772 -3.0998607 1.3137841 404
-0.37367296 -3.1057119 1.2660967 318.5
-0.20911479 -3.0484197 1.275317 274.5
-0.066754565 -3.0157216 1.2960696 277
0.1274005 -2.8567958 1.3496412 297
-0.048877411 -2.8414307 1.2415476 290.5
0.080128744 -2.8379705 1.2952459 298.33334
0.10303902 -2.5620472 1.2831781 360.5
0.23403434 -2.6041951 1.3031275 287.33334
0.34497958 -2.5796986 1.2787271 301
0.169498 -2.5339284 1.2352694 222
0.40814611 -2.5284114 1.2587538 314
-0.46885559 -3.159193 1.4189472 249
-0.33145627 -3.1605597 1.4338524 273.66669
-0.37904969 -3.1411994 1.4896566 267
-0.23161219 -3.0992503 1.4047455 279
-0.014319092 -3.0083663 1.4515102 278
-0.18776527 -2.9801674 1.4423794 261
-0.051429339 -2.917454 1.4216661 280.5
0.053497881 -2.851146 1.4285312 291
-0.088783264 -2.8440442 1.3984014 279
0.12713541 -2.840013 1.4578648 286
0.23992729 -2.5832024 1.4010347 288.20001
0.37636209 -2.5800104 1.4154496 296.5
0.1192865 -2.5119138 1.4312215 337
0.21711907 -2.5180964 1.4616413 322.33334
0.3096669 -2.5390189 1.4339421 220
-0.38489053 -3.1650231 1.5850494 287
-0.4649857 -3.1367245 1.5409396 263
-0.30496255 -3.1463478 1.5693618 253
-0.24557233 -3.1229701 1.6111512 307.33334
-0.20714658 -2.9573483 1.5697157 251
-0.072511487 -2.9605329 1.5982941 266.5
0.060392871 -2.902087 1.5770931 273
-0.051720068 -2.8387733 1.5463525 264
0.077269621 -2.8322752 1.6208911 270.33334
0.2818172 -2.6141052 1.5689043 266
0.33337483 -2.5838804 1.5417273 320
0.13375029 -2.4825931 1.5786908 360
0.23906274 -2.5028191 1.5889663 380.39999
0.36670393 -2.5313935 1.5811324 328.5
-0.46764967 -3.1401772 1.7155013 271
-0.38028747 -3.1361985 1.7025399 264
-0.21972924 -3.1242096 1.7216007 267
-0.20549357 -2.9190283 1.749275 240
-0.092854522 -2.9253039 1.7402896 247
0.014367908 -2.9653828 1.7490968 262
-0.17495686 -2.784584 1.7915251 364
-0.050071128 -2.8251863 1.7359221 282.85715
0.08841601 -2.823792 1.7496827 267.5
0.14331686 -2.4888577 1.7023816 352
0.23943236 -2.5081043 1.7354661 373.22223
0.35486266 -2.5128496 1.7173731 316.42859
-0.50302565 -3.0901289 1.867909 293.75
-0.37134019 -3.0838706 1.8454056 284.5
-0.22140861 -3.1260176 1.8462175 249
0.031807646 -2.8644998 1.8101646 414
-0.055860396 -2.7993045 1.8860705 309.33334
0.079696476 -2.7986858 1.9055986 276.60001
-0.077029586 -2.6927922 1.9253607 416
0.014851332 -2.5662518 1.9482511 374
0.40025559 -2.5512927 1.9152335 309
0.22843686 -2.5054011 1.8819951 325.5
0.36921757 -2.5062072 1.8567772 332.60001
0.24169853 -2.3416462 1.9334826 363.33334
0.38002813 -2.3104932 1.9295936 180
-0.49880403 -3.0672896 1.9781928 298.5
-0.34083596 -3.1075313 2.0126195 266.5
-0.24889141 -3.0948348 2.0061512 329.33334
-0.053578675 -3.0214584 1.9708707 414
0.021810412 -3.058337 1.9832644 424
-0.6282047 -2.9991248 1.9677312 408
-0.36608845 -2.8872638 1.9875368 290
-0.21860978 -2.9257498 1.9863294 290
-0.082691908 -2.9293623 1.9713796 384.66669
0.077488787 -2.9601197 1.9967022 324.5
-0.16368221 -2.8017111 1.9661705 252
-0.047445446 -2.7614362 1.9612143 408
0.076183081 -2.7734089 1.9944118 279
0.24000479 -2.7940269 2.0152771 281
0.34263024 -2.7955678 2.0117865 265
-0.064287595 -2.6323547 1.9627769 340.66669
0.090894125 -2.628721 1.9976727 305.39999
0.27525589 -2.6133275 1.9572073 344
-0.056893647 -2.5065851 1.9656024 272
0.010665387 -2.503206 1.9552821 342
0.24158332 -2.5315602 1.9952853 304.75
0.38587749 -2.5133905 1.9762437 321.25
0.36104816 -2.3969045 1.9656184 237
