# .PCD v0.7 - Point Cloud Data file format
VERSION 0.7
FIELDS x y z intensity
SIZE 4 4 4 4
TYPE F F F F
COUNT 1 1 1 1
WIDTH 1
HEIGHT 50
VIEWPOINT 0 0 0 1 0 0 0
POINTS 50
DATA ascii
4.4685683 -1.3920044 0.066167325 351.66669
4.5058069 -1.3652514 0.14737886 368
5.0408931 -1.3673439 0.050854713 294.5
4.498456 -1.3223226 0.14789173 374
4.5459509 -1.3299888 0.052209616 261
4.9421368 -1.3486584 0.12711021 342
4.9840102 -1.3402995 0.12518656 332
4.5863218 -1.5063562 0.29134065 308
4.5947981 -1.3769693 0.26486868 344
4.5377626 -1.3393126 0.21557237 366
4.8999763 -1.3253053 0.24453235 314
4.6333108 -1.527432 0.37451011 310
4.5961165 -1.3669597 0.37255844 384
4.730948 -1.4181536 0.37335861 342
4.8527317 -1.3105497 0.37241444 341
4.917738 -1.1911675 0.37138164 314
4.6345148 -1.5347376 0.51018906 366
4.6333418 -1.3856273 0.50715214 375
4.7248344 -1.4062119 0.51038963 294.5
4.7414222 -1.2774273 0.50765395 362.5
4.8468313 -1.1802499 0.50969481 329.5
4.9962916 -1.0569012 0.51258487 313.5
4.8152542 -1.6645155 0.66977572 279
4.755146 -1.5841109 0.66360593 303
4.612442 -1.3901834 0.74939477 2291
4.7164154 -1.4061813 0.65578008 298
4.6470771 -1.2724471 0.64782172 430
4.6882863 -1.2372301 0.64935374 420
4.726337 -1.1584299 0.69995761 1441.5
4.9786983 -1.0432732 0.66245627 398
4.6869512 -1.5667508 0.81593043 489
4.7151756 -1.427709 0.82331389 690.60004
4.6362138 -1.2781974 0.85131705 1957
4.7065659 -1.2649628 0.75264806 995
4.8372903 -1.2655519 0.87159526 297
4.8732414 -1.1685815 0.83544946 346
4.6730046 -1.5683881 0.97798574 311
4.7499285 -1.4584019 0.98155367 293
4.8081036 -1.4015996 0.98592424 295
4.7643862 -1.3202391 0.97652674 303
4.8337741 -1.2578549 0.98241234 313
4.8790779 -1.1759886 0.98466462 310
4.7206302 -1.5897416 1.0988919 295
4.6824751 -1.3907466 1.081187 1492
4.7390647 -1.2878066 1.1217213 1297
4.7374883 -1.1772418 1.0779989 2249
5.018559 -1.1707703 1.1199903 263
4.7345581 -1.4471266 1.2078959 301
4.8343892 -1.4227874 1.303584 278.66669
4.7837892 -1.343786 1.4485646 244
