# .PCD v0.7 - Point Cloud Data file format
VERSION 0.7
FIELDS x y z intensity
SIZE 4 4 4 4
TYPE F F F F
COUNT 1 1 1 1
WIDTH 1
HEIGHT 81
VIEWPOINT 0 0 0 1 0 0 0
POINTS 81
DATA ascii
-0.4662039 2.2294786 0.22584639 305.66669
-0.39350143 2.2095163 0.2325054 309.36365
-0.49032474 2.2583809 0.21878505 293.66669
-0.3842032 2.2975245 0.23523813 299.66669
-0.48959938 2.5604415 0.26795202 297
-0.43231109 2.2124784 0.35479176 313
-0.50651675 2.2707343 0.36515251 294
-0.3923012 2.2951536 0.36174697 306.66669
-0.47049296 2.5333943 0.36097229 291
-0.38891575 2.4476502 0.39029685 291
-0.49372759 2.5892823 0.30164942 275
-0.39572975 2.5846102 0.42412347 239
-0.50010395 2.2370341 0.51111996 307
-0.42399752 2.199295 0.51843518 318.42859
-0.41117531 2.3464069 0.51255178 300.33334
-0.41150546 2.480109 0.52999079 305.80002
-0.39437383 2.5834525 0.51149046 305
-0.50107145 2.2296095 0.66115767 312.33334
-0.41395327 2.1921945 0.67657673 328
-0.3878521 2.3284216 0.67305166 319.57144
-0.38177764 2.4694021 0.66919148 301
-0.25514016 2.5017893 0.67589378 251
-0.10240149 2.4396164 0.71689737 252
-0.34471855 2.5620046 0.68927419 293.66669
-0.26707891 2.5537155 0.74294317 277
-0.50170141 2.2242293 0.79954243 337
-0.44085369 2.2036095 0.81953633 347
-0.3815082 2.3105056 0.82116222 327.39999
-0.33271718 2.4522219 0.82407784 311
-0.2392001 2.5075269 0.83733594 282.33334
-0.10165684 2.5152745 0.82970619 294.33334
-0.32915062 2.5578599 0.84224492 305
-0.44757518 2.219276 0.94053841 367
-0.53633124 2.3187752 0.94187999 311
-0.38246772 2.3403311 0.96178961 324.25
-0.32802725 2.5098667 0.96340084 335.75
-0.23378265 2.5377831 0.96151143 258
-0.07179758 2.5322082 0.91549563 289
-0.24541879 2.6172955 0.98057425 280
-0.36551836 2.2174537 1.1141434 285
-0.35743269 2.3068111 1.0984399 328.33334
-0.25889686 2.2592196 1.1144892 383
-0.31883445 2.4913647 1.1118265 315.39999
-0.26012802 2.5955191 1.1074628 299.39999
-0.36761627 2.3504729 1.2536886 313
-0.32202786 2.5287046 1.275298 292
-0.25944915 2.6021543 1.2220676 315
-0.38929352 2.3727598 1.4281836 294
-0.38891953 2.4686184 1.4345334 290
-0.34031066 2.6557932 1.393555 317
-0.36517513 2.8244319 1.4581943 265
-0.15443856 2.728219 1.4738477 340
-0.32933807 2.8945041 1.400306 270
-0.27960059 2.897172 1.4483303 275.66669
-0.3763141 2.3723207 1.5868721 273
-0.33652648 2.6862342 1.6241734 275
-0.17896959 2.6979988 1.6091065 269
-0.070465595 2.617244 1.6292993 249
-0.37365749 2.7602398 1.5764318 276.71429
-0.22789468 2.7692671 1.590808 280
-0.38954249 2.89713 1.5674412 295
-0.26043513 2.8602366 1.5373708 283
-0.26411155 2.073473 1.7659534 368
-0.2122027 2.2234352 1.772078 243
-0.30376801 2.3974674 1.7921085 249
-0.19935971 2.3607802 1.7793207 252
-0.10383359 2.3621407 1.6872135 226
-0.35229301 2.4757779 1.7632964 248.60001
-0.22807169 2.4778183 1.7669533 254.66667
-0.12765336 2.5061116 1.7090526 253
-0.36866793 2.6202772 1.7231711 283.80002
-0.23051125 2.6174309 1.7221525 265.88889
-0.12290045 2.6029859 1.6720461 268.33334
-0.34108609 2.7612238 1.7294922 274.33334
-0.24299824 2.7206059 1.6984888 273
-0.30711332 2.224793 1.8323839 251
-0.23515913 2.1987498 1.8257694 256.66669
-0.3487193 2.3592992 1.8548003 256
-0.25238711 2.3361185 1.8197575 251.00002
-0.34924892 2.4445591 1.8267796 258
-0.2575452 2.4755373 1.8278944 257
