# .PCD v0.7 - Point Cloud Data file format
VERSION 0.7
FIELDS x y z intensity
SIZE 4 4 4 4
TYPE F F F F
COUNT 1 1 1 1
WIDTH 1
HEIGHT 136
VIEWPOINT 0 0 0 1 0 0 0
POINTS 136
DATA ascii
-0.4017323 -2.4097447 0.23054078 261
-0.19962852 -2.4736481 0.26651055 282
-0.34582826 -2.3443413 0.22576375 284
-0.24503836 -2.3317056 0.22578189 302.07693
-0.081089728 -2.3146539 0.23908155 321.20001
0.018722655 -2.2932281 0.24389386 327.22223
-0.015666306 -2.2372797 0.2425821 353
0.024510786 -2.2357373 0.16221759 360
-0.21819943 -2.4528346 0.33373672 315
0.044444527 -2.4189506 0.40576524 283.66669
-0.34392232 -2.3182111 0.35922477 308.66669
-0.2329053 -2.318069 0.36114022 316
-0.06070463 -2.2959847 0.38243666 331.45456
0.039256379 -2.3857508 0.32634661 307
-0.019140959 -2.4987147 0.5023883 269
0.051705658 -2.4348807 0.4959622 426
-0.34735742 -2.3009121 0.50048822 316.71429
-0.22719666 -2.2834001 0.52660245 331.88889
-0.076985717 -2.2829773 0.52583385 336.875
0.04365015 -2.3970258 0.49414313 188
-0.2296578 -2.2499912 0.54455233 353
-0.10138968 -2.2492836 0.58676428 377
-0.37107283 -2.3536496 0.66699195 299.33334
-0.24010184 -2.2729297 0.64806938 324
-0.068688095 -2.3021691 0.67414224 343.80002
-0.21241054 -2.2193692 0.69733757 360.66669
-0.13132584 -2.2365675 0.72587442 381
-0.35776702 -2.4168115 0.81980002 292
-0.056630999 -2.4932842 0.81280011 279
-0.39174914 -2.3064203 0.83265972 309
-0.051464077 -2.3443048 0.81509256 337
-0.21363682 -2.1869116 0.8241657 391
-0.11274057 -2.2257254 0.82444751 431
-0.069989242 -2.4636242 0.99643004 311.5
0.046381734 -2.4698436 0.95848334 279
-0.35207805 -2.3085272 0.97186768 299
-0.21904811 -2.2836123 1.0142312 310.33334
-0.070109159 -2.3033357 0.99444515 360.5
0.072675355 -2.3309305 0.99916345 299
-0.21231818 -2.1965075 0.93158841 347
-0.1249928 -2.2198284 0.95428348 380.5
0.12526579 -2.1378083 1.0430595 323
-0.54540706 -2.4285362 1.0893376 329.33334
-0.43911585 -2.4546063 1.0607506 277
-0.52899921 -2.3418224 1.1740948 260
-0.36377847 -2.3373134 1.1233482 301.28574
-0.23557872 -2.3070114 1.1182985 311.57144
-0.07327684 -2.3435199 1.1230719 349
0.040927291 -2.3333006 1.0792633 301
-0.37374064 -2.232645 1.0577681 323
-0.22125584 -2.2377145 1.1037364 329
0.051762521 -2.213969 1.131587 307
-0.057477742 -2.7851198 1.3372155 343
0.068018824 -2.8127313 1.3378718 340
0.1595279 -2.8330779 1.339684 384
-0.54333746 -2.4158504 1.3356158 136
-0.37556189 -2.4396968 1.3196275 190.66667
-0.22196583 -2.4518609 1.2608466 293.66669
-0.074036799 -2.4445951 1.2434204 302.33334
0.10546805 -2.5070968 1.2295678 641
-0.37276849 -2.3657269 1.2267096 297.5
-0.23103327 -2.3677304 1.2859051 297
-0.1272385 -2.354424 1.2907035 352
-0.014377445 -2.8772428 1.443108 273
0.03381449 -2.8833089 1.403065 243
0.18714756 -2.8799117 1.4315214 289
-0.21953583 -2.8033862 1.4343128 326
-0.08023195 -2.810272 1.4690069 292.20001
0.058600128 -2.7976675 1.4458907 391
0.22351442 -2.7861838 1.469304 255
-0.48568726 -2.6108506 1.4329206 244
-0.36287895 -2.6143363 1.4535837 316.5
-0.45596966 -2.5040216 1.4937886 312
-0.3791185 -2.4730594 1.4418129 230
-0.18898746 -2.4343791 1.3832812 264.33334
-0.50666046 -2.3382337 1.4345855 204
-0.44354913 -2.3435049 1.4258436 229.66667
-0.19728045 -2.3281963 1.4304805 292.375
-0.11453447 -2.2956295 1.4361041 286
-0.21182948 -2.2421913 1.4694294 324
-0.15630367 -2.7964618 1.5010787 231
-0.037531611 -2.794564 1.5635792 298.80002
0.08374729 -2.7636654 1.5265722 283.60001
0.19606061 -2.7504191 1.5291971 297
-0.36413381 -2.575331 1.5444925 336.5
-0.04812257 -2.643806 1.5704384 272
0.097654477 -2.6625454 1.6065201 256.85715
0.23730564 -2.6538186 1.5892851 266
0.37422746 -2.5821471 1.5843503 268
-0.34300911 -2.463244 1.5785103 337.60001
-0.050546318 -2.525579 1.5836703 294
0.38251358 -2.4836564 1.6192412 198
0.47712958 -2.4971457 1.5732313 208
-0.48738632 -2.3109891 1.5463742 325.33334
-0.37066156 -2.3240521 1.5923779 306.88889
-0.19393383 -2.3441014 1.5450935 269
0.33742505 -2.3659096 1.6259514 216
0.46420577 -2.3607345 1.6214771 189
-0.39528817 -2.1767194 1.5635571 199.33334
-0.087195426 -2.2422771 1.5106483 214
-0.34991497 -2.0224361 1.5692071 158
-0.25612256 -1.9762166 1.6326375 116
-0.3388733 -1.9202023 1.5775901 222
-0.20774601 -1.8879772 1.6215281 181
-0.1244162 -1.8604978 1.63095 320
-0.10993314 -2.5942066 1.6663094 285.33334
0.087087579 -2.5853467 1.7102588 285.71429
0.23946978 -2.6130736 1.6853454 321.5
-0.30781427 -2.4478972 1.7051305 289
-0.20710866 -2.4731214 1.6893399 278.80002
-0.075986281 -2.4439888 1.7270679 282.66669
0.065372467 -2.4794703 1.7394956 281.42859
0.23105444 -2.4645171 1.7048268 236.25
-0.21576037 -2.3278954 1.7214086 257.42859
-0.080600224 -2.3076262 1.7615485 192.33334
0.066488944 -2.3126435 1.7783604 258.39999
0.2232566 -2.3292742 1.7552344 256.375
0.36518699 -2.3292346 1.6638879 192.40001
0.45592228 -2.276556 1.653697 226
-0.35298339 -2.1313341 1.6538144 88
-0.20436656 -2.1438081 1.7288584 172.33334
-0.068721727 -2.190937 1.7816889 243.81819
0.073001087 -2.1825485 1.7727581 234.25
0.22211221 -2.187571 1.7557127 204.18182
0.38690332 -2.1883149 1.7030081 201.42857
0.45106608 -2.2294269 1.6735076 234
-0.3242628 -2.0275311 1.6561028 244
-0.24253324 -2.0761538 1.6981235 240.5
-0.074695602 -2.0635653 1.7537479 219
0.066317357 -2.0396426 1.7506393 232
0.21114293 -2.0402658 1.7242589 243
-0.034193844 -1.9089546 1.6898739 178
0.060070425 -1.9114914 1.7076716 240
0.20979436 -1.9126964 1.6932096 218
0.0686896 -2.4292638 1.8108338 310.66669
-0.017122746 -2.1993232 1.8038369 410
