# .PCD v0.7 - Point Cloud Data file format
VERSION 0.7
FIELDS x y z intensity
SIZE 4 4 4 4
TYPE F F F F
COUNT 1 1 1 1
WIDTH 1
HEIGHT 58
VIEWPOINT 0 0 0 1 0 0 0
POINTS 58
DATA ascii
3.5755935 -1.6595474 0.13557288 142
3.5865476 -1.5300659 0.049004942 339.33334
3.6417644 -1.5908544 0.097211078 326
3.5043502 -1.3832549 0.021861821 290
3.5765598 -1.2601352 0.04734486 299.60001
3.639437 -1.3439893 0.088547975 261
3.354568 -1.7174349 0.21700713 292
3.6286387 -1.6757553 0.21556973 315
3.3721783 -1.5985852 0.25285882 414
3.5167699 -1.5742099 0.2200449 246
3.6187482 -1.5651196 0.20662734 399.33334
3.2859502 -1.7055764 0.31422639 358
3.34939 -1.7325093 0.41141641 396
3.5843191 -1.6665424 0.44719702 362
3.6053667 -1.6716707 0.34228182 386
3.3640192 -1.5831321 0.37627631 376.66669
3.6102378 -1.5604395 0.30747673 394
3.4139051 -1.4650759 0.37409124 401.33334
3.3899527 -1.7431004 0.55607986 328.5
3.5804684 -1.6681252 0.52227557 364
3.4138184 -1.5943632 0.55140495 401
3.642561 -1.5864151 0.52169889 352
3.4470387 -1.4666032 0.54787624 372
3.3839951 -1.7304643 0.67164683 299
3.6080508 -1.6855043 0.60297537 364
3.3969541 -1.5737695 0.70360249 1565
3.5227294 -1.6457584 0.67684913 317
3.6607304 -1.6001873 0.64287388 275
3.4369872 -1.4478574 0.73976588 3727
3.476439 -1.4716372 0.66431892 343
3.3745751 -1.7158628 0.79308909 663
3.608634 -1.6942508 0.81545305 317
3.4273534 -1.5801253 0.83028805 399
3.5538566 -1.556366 0.79993957 480
3.5022104 -1.4718673 0.8311227 443
3.4047887 -1.7199012 0.96869683 318
3.6306005 -1.7119796 1.0004896 293
3.4264534 -1.5819194 0.94459099 351.66669
3.4657483 -1.5378859 0.96076763 401
3.3453524 -1.4650784 0.97852945 359
3.503371 -1.4636545 0.9598878 353
3.6792958 -1.9811316 1.1822976 291
3.6559939 -1.889383 1.1673251 313
3.3681078 -1.6871583 1.1383581 524
3.6565902 -1.7301168 1.1491867 321
3.3711383 -1.5854546 1.0819528 1937
3.486141 -1.5609481 1.1461395 371.75
3.49124 -1.4464902 1.1346283 359
3.4979353 -1.9807951 1.3459618 370
3.6235728 -2.054713 1.282452 271
3.5685012 -1.9054708 1.2513142 265
3.5328107 -1.6979942 1.3126798 302
3.7495863 -1.7809252 1.2714342 281
3.53053 -1.5595108 1.200435 257
3.503686 -1.9873583 1.4473069 245
3.5180192 -1.8766356 1.3825985 280
3.5154569 -1.7129589 1.4256526 305
3.5607839 -1.6935372 1.5115997 281
