# .PCD v0.7 - Point Cloud Data file format
VERSION 0.7
FIELDS x y z intensity
SIZE 4 4 4 4
TYPE F F F F
COUNT 1 1 1 1
WIDTH 1
HEIGHT 89
VIEWPOINT 0 0 0 1 0 0 0
POINTS 89
DATA ascii
3.0765271 -0.15709557 0.12447299 399
3.1312654 -0.10747411 0.08902657 369
3.1662936 -0.13171279 0.10053109 321
2.8440385 0.24364528 0.049399033 386
2.8974929 0.26062202 0.10826413 379.39999
3.1109614 0.20232479 0.071916647 289
2.8458593 0.42554787 0.11346319 398
2.9078836 0.36783296 0.065586597 334.125
2.8406539 0.51064903 0.11400236 359
2.8774009 0.51963007 0.075696982 324.39999
3.0775599 -0.15216237 0.17695799 363
3.0963578 -0.10881852 0.22201996 372.55557
3.1596036 -0.074229442 0.25865138 305
2.9163251 0.26568437 0.207656 397.33334
3.0773005 0.21737763 0.21818155 327
2.8107221 0.38957629 0.22423732 404.20001
2.8619742 0.34723401 0.22743282 319
2.823323 0.49386349 0.20076703 369.39999
2.8593235 0.50864643 0.17780659 382.66669
3.1492965 -0.22002475 0.30774936 303
3.1915152 -0.18619752 0.38831234 311
2.956558 -0.063795038 0.4106791 493
3.0813828 -0.088751949 0.35542747 394.20001
3.0850837 0.039402869 0.35310751 363.57144
2.7863419 0.25597131 0.39538521 413
2.9218318 0.24936569 0.34361762 390
3.0254769 0.18641037 0.3602455 370
2.7921524 0.35480642 0.34964365 418.33334
2.8196735 0.47944802 0.3369801 342
3.129586 -0.20295587 0.56497133 358
3.2129421 -0.17942855 0.49732989 301.66669
2.982388 -0.070582211 0.52452987 495.66669
3.0720248 -0.066380076 0.52273417 432.75
3.0801437 0.091115296 0.51076251 374.16669
3.2133663 0.06681674 0.50752258 370.5
2.695976 0.27883512 0.56045622 523
2.7497487 0.241744 0.50362593 495.75
2.9268897 0.19242755 0.50689059 454
3.0079591 0.16000181 0.55572683 397
2.7786589 0.33029479 0.51334035 429.66669
3.2021136 -0.16807261 0.63591093 347
3.1841898 -0.049568895 0.66715389 276.5
2.9682455 0.10828687 0.70745647 318
3.1112208 0.13023172 0.65955544 319
2.6963241 0.28666997 0.73275459 529
2.7526436 0.22387704 0.68081844 479.36365
2.8740244 0.1764937 0.63418782 402
2.7598691 0.33953103 0.69223559 435.57144
2.8564353 0.38592008 0.69707668 375
3.0952764 -0.057528298 0.86174268 326
3.1956477 -0.049486212 0.82575649 321.75
2.9034777 0.10512747 0.81428289 371.39999
3.1674898 0.04721706 0.87473631 320
2.7746971 0.22597125 0.83468223 496.09091
2.8507342 0.16364181 0.81841934 379
2.6605463 0.339863 0.78806233 367
2.7852075 0.37526855 0.82200325 371.33334
2.8672886 0.37741825 0.89226174 451
3.2138827 -0.030368825 0.95718074 279
2.9126198 0.10727393 0.96273708 409
3.0726218 0.046403613 0.92810225 363
3.1804056 0.04405196 0.95031917 319
2.7806153 0.23980157 0.96412152 484.33334
2.8624315 0.17146441 0.98597169 433
2.774555 0.34423089 0.9797864 330.33334
2.8928449 0.3992995 0.98910183 332.33334
2.9516871 0.10856127 1.1106373 344.5
3.1255865 0.05531989 1.1226299 370
2.8021638 0.21863934 1.1186755 431.85715
2.8707407 0.21155047 1.1244879 443
2.7697012 0.35924837 1.1166005 352.5
2.8969624 0.37150621 1.1034021 303
2.9439116 0.12066243 1.2836907 297
3.0868938 0.080498427 1.2596667 307.5
2.8152947 0.23415418 1.2486848 427.80002
2.9129982 0.22058518 1.2757175 370.25
2.8027942 0.35939881 1.2627445 316.60001
2.8632171 0.36002985 1.2299132 301
2.8379452 0.097180292 1.4752665 386
2.8655901 0.06780383 1.4438753 207.33334
3.066925 0.093513869 1.3980712 255.5
2.8237662 0.15396941 1.4385262 314
2.889174 0.22948769 1.3827871 245
2.8990605 0.35824379 1.3792806 396
2.970547 -0.0036922607 1.5980614 418
3.0373726 -0.0069346498 1.5616279 231
2.8178008 0.10315006 1.5759482 275.39999
2.924156 0.085085653 1.5876255 340
2.8297782 0.14369716 1.6531739 295
