# .PCD v0.7 - Point Cloud Data file format
VERSION 0.7
FIELDS x y z intensity
SIZE 4 4 4 4
TYPE F F F F
COUNT 1 1 1 1
WIDTH 1
HEIGHT 59
VIEWPOINT 0 0 0 1 0 0 0
POINTS 59
DATA ascii
-0.23749857 1.5807103 0.27544031 381
-0.044124618 1.6368276 0.27557421 281.5
0.030876577 1.6492014 0.24111985 439
-0.27098027 1.6869277 0.24534287 261
-0.021493617 1.662822 0.25523624 443.25
0.051488008 1.6851907 0.25895226 410.11111
-0.19678766 1.4920075 0.39603218 437
-0.20475805 1.5512056 0.36244658 374.93103
-0.063305438 1.6173947 0.38435933 451.5
-0.15670133 1.6552254 0.39748374 287
-0.058147892 1.6837403 0.37736762 403.28574
0.037121046 1.6989504 0.3642076 422.85001
-0.14505431 1.820393 0.43402582 251
-0.20163476 1.4897954 0.57608348 496.60001
-0.13338737 1.4902445 0.5500598 528
-0.19799154 1.5156652 0.5009563 444.17648
-0.082165562 1.576319 0.52308905 492.13043
0.0007070303 1.630843 0.55829865 561
-0.069826216 1.6733682 0.5029062 488
0.018019535 1.7062567 0.51091397 473.5
0.044361979 1.814641 0.46130893 271
-0.1890617 1.4771976 0.68563145 542.16669
-0.10660481 1.4812022 0.67375344 559.18182
-0.19519994 1.5044826 0.65540576 520.33337
-0.062130325 1.5450082 0.68730199 430.25
-0.033034753 1.6762909 0.63216352 455.66669
0.0082345251 1.7048396 0.65555346 438.60001
-0.023574665 1.9128093 0.70701408 351
0.020241365 1.9704422 0.73929965 263
-0.18871233 1.4840273 0.78315008 519.66669
-0.10887185 1.4671087 0.8307128 609.5
-0.16194561 1.5085245 0.86979377 479
-0.05354939 1.5766592 0.82702029 452.05264
-0.017845303 1.7140329 0.84884918 385
0.025224019 1.7165905 0.81482202 427
-0.011528304 1.823911 0.82282877 367
0.040482972 1.8735664 0.77909213 352
-0.084880553 1.4476207 1.0039308 476.83334
-0.15594451 1.5048759 0.93088216 588
-0.058101173 1.5772392 0.97080386 477.70587
-0.023477197 1.6524078 0.98950315 394
0.012210935 1.7329433 0.92192793 243
-0.059450421 1.4302689 1.1062825 437.77777
0.063640788 1.4669844 1.1589416 410.21429
-0.048265707 1.5617464 1.1522782 470.33334
-0.038038038 1.6887572 1.1075537 352
-0.09434668 1.4549985 1.2275535 413
0.09733326 1.4688057 1.2464894 345.28574
0.15882942 1.4792823 1.2607241 450
-0.075033046 1.5722959 1.2772195 403.66666
0.068426274 1.5518702 1.2639227 303
-0.15071145 1.6349868 1.4664212 245
-0.083016686 1.6101751 1.4367915 320.16
0.14126742 1.5647647 1.3957167 299
0.164004 1.5447868 1.382337 239
-0.16298887 1.6709518 1.4632638 287
-0.061001319 1.6715389 1.4377009 309
-0.033084877 1.6873031 1.5487566 303
0.03158161 1.686998 1.5422196 351
