# .PCD v0.7 - Point Cloud Data file format
VERSION 0.7
FIELDS x y z intensity
SIZE 4 4 4 4
TYPE F F F F
COUNT 1 1 1 1
WIDTH 1
HEIGHT 107
VIEWPOINT 0 0 0 1 0 0 0
POINTS 107
DATA ascii
2.5158544 0.39665589 0.12240122 381
2.5701389 0.38112399 0.088972017 372.33334
2.5052462 0.47640496 0.10421865 469
2.3236504 0.60055912 0.1294328 409
2.4511745 0.63605785 0.10578873 397.85715
2.3895724 0.7819159 0.11878243 435
2.5055039 0.80337518 0.094319388 313.66669
1.9797497 0.9298749 0.13161562 550
2.3246284 0.90835994 0.11045116 405.66669
2.5113819 0.3932474 0.20715813 429
2.5927176 0.3650468 0.22078678 374.33334
2.1887426 0.56985068 0.23240705 487.39999
2.4843388 0.51902676 0.22861473 408.41669
2.5739174 0.46647018 0.24176461 320.33334
2.1489494 0.68706268 0.2562272 507.66669
2.3646865 0.65506387 0.22121048 433.33334
2.4452889 0.62791407 0.19778278 407
2.6549909 0.74754655 0.23599744 316
2.7573662 0.64754575 0.23158224 424
2.0684047 0.80578482 0.23644529 526.33331
2.1394696 0.81343085 0.20388526 421
2.3118277 0.87679309 0.21238892 430.33334
2.4338379 0.76349938 0.1844295 409.66669
2.6974466 0.75735849 0.27353618 251
2.0112717 0.93737847 0.21302883 506
2.6062028 0.38257307 0.34264007 358.60001
2.7507746 0.40104142 0.35961804 401
2.2083142 0.55739963 0.38809758 536.71429
2.2568212 0.53967184 0.32212135 351
2.4918046 0.52721596 0.3738431 496.80002
2.6467319 0.46724841 0.3451702 321
2.7319157 0.48546705 0.40825063 295
2.139365 0.67561376 0.38077959 518.25
2.4602115 0.64808053 0.3619495 451.22223
2.5623906 0.72166109 0.40802041 309
2.0793414 0.79681957 0.38238502 523.33337
2.2438543 0.75369585 0.44522104 435
2.3467522 0.81040072 0.40551192 338
2.4634171 0.81205463 0.38517123 361
2.0560637 0.93602967 0.38525572 443
2.6163948 0.36941633 0.5042097 324.33334
2.2163119 0.55490226 0.48216468 612
2.3031864 0.54093254 0.55737817 457
2.5002847 0.51374471 0.49841994 485
2.5625858 0.52152318 0.55411589 403
2.7306275 0.4793655 0.50176954 260.60001
2.0325835 0.66967016 0.53832316 484.5
2.1553845 0.6745438 0.53446048 631.66669
2.3583813 0.71958125 0.51947039 433
2.469115 0.69898808 0.46888468 437.66669
2.5725176 0.64323908 0.45538285 295
1.9141487 0.80804968 0.57739884 555
2.0773528 0.7969293 0.5262087 631.44446
2.3482533 0.82147723 0.45103544 339
2.0395312 0.91740549 0.50699711 538
2.7012703 0.37729511 0.61869633 309
2.2897716 0.53623641 0.67959058 542
2.6142576 0.52264416 0.64750826 344
2.0608196 0.70806426 0.65649742 607.40002
2.1707656 0.6682688 0.67740434 597
2.2547772 0.61025029 0.62799132 573
2.539402 0.72601449 0.6692695 397
2.5578721 0.72963506 0.61519706 393
1.9317137 0.82199758 0.65634358 511.80002
2.0260658 0.79713756 0.68004125 648
2.115675 0.7969861 0.68693036 677.66669
2.3070278 0.53920525 0.84114933 543.66669
2.5973442 0.51483238 0.81385374 433
2.1828258 0.67567229 0.82789391 520.64703
2.51688 0.66419303 0.83664918 415
2.0036597 0.84861577 0.80461866 394
2.1387548 0.78458846 0.81795573 566.14288
2.1059141 0.92522675 0.88758731 307
2.3436966 0.54789305 0.98879921 442
2.0759923 0.70654845 0.98100042 425
2.1811707 0.68452066 0.97344339 506.375
2.6449838 0.69846898 0.92737067 265
2.0175371 0.83987105 0.9649604 366.71429
2.1131158 0.81983727 0.98128372 429.5
2.2699521 0.75387722 1.0170702 547
2.4056644 0.44367781 1.1971644 307
2.3413455 0.54589742 1.1277704 417.33334
2.4500945 0.45073536 1.1571249 420
2.0838239 0.71216649 1.0601676 349
2.168062 0.70388544 1.1339393 352.77777
2.339385 0.65230316 1.0822883 305
2.0750656 0.87118024 1.1173471 319
2.1527128 0.8348726 1.1019255 291
2.3391285 0.77475584 1.1263279 365
2.0854287 0.90085888 1.0913744 307
2.3259461 0.43020359 1.2454339 319
2.2856693 0.51689148 1.2882538 350.66669
2.4047642 0.59878683 1.2688234 295
2.2053673 0.67021549 1.2749326 334.66669
2.2862966 0.71759915 1.302551 299.80002
2.2138803 0.77029675 1.2715191 303
2.2546237 0.78312266 1.3422686 309
2.4477422 0.81003404 1.2562673 257
2.3921559 0.44724265 1.3542551 305
2.1929777 0.56463814 1.4473746 361.66669
2.2765558 0.5687232 1.3662127 297
2.1885774 0.67780626 1.4162889 341.375
2.3171778 0.66916579 1.3833659 291.66669
2.2319546 0.76771808 1.4259088 292.5
2.202539 0.59323627 1.5384398 321
2.1771467 0.69520098 1.5100566 313
2.2256265 0.75893861 1.5098046 297
