# .PCD v0.7 - Point Cloud Data file format
VERSION 0.7
FIELDS x y z intensity
SIZE 4 4 4 4
TYPE F F F F
COUNT 1 1 1 1
WIDTH 1
HEIGHT 57
VIEWPOINT 0 0 0 1 0 0 0
POINTS 57
DATA ascii
3.8847277 -1.0608315 0.1231588 492
3.9998505 -1.0998164 0.065710694 269
3.5208979 -0.91743445 0.046741396 412
3.6835132 -0.93735534 0.0905817 365
3.8071656 -1.0280055 0.083093494 345
3.5468302 -0.87785804 0.030897811 311
3.655673 -0.84687096 0.090918496 334.25
3.8914118 -1.0525585 0.23587318 374
3.9337018 -1.1004671 0.2108126 380.39999
3.8815913 -1.0429342 0.29964501 376
3.6579731 -0.86540347 0.21044233 413.60001
3.8554084 -1.1396477 0.36979902 379.33334
3.7161865 -0.9047811 0.40029311 427
3.827122 -1.0262178 0.40318489 365.75
3.6881006 -0.8649953 0.36764729 413.60001
3.8111911 -1.1235263 0.55420554 326
3.7925782 -0.98416328 0.5575642 281.60001
3.9248877 -1.0411958 0.51769996 275
3.7362034 -0.88563401 0.50699908 237
3.7837863 -0.83165455 0.55895656 367.66669
3.8023527 -1.245653 0.67929137 269
3.6952281 -1.0857232 0.66464674 335
3.7504482 -1.1763718 0.67245054 416
3.664762 -0.97692508 0.7120716 365.66669
3.779053 -0.93407875 0.66633779 263
3.6855054 -0.86052859 0.69679379 352
3.8328476 -0.81918621 0.69496363 279.66669
4.0376139 -0.79969734 0.68395972 294
3.7091484 -1.2179651 0.79718441 285
3.7275305 -1.136999 0.78066897 496
3.8065796 -1.1842651 0.85029018 267
3.6314206 -0.96624702 0.81765747 2137
3.6283865 -0.87138355 0.85472262 2720
3.7942169 -0.82870948 0.80374753 384.33334
3.9752276 -0.79218757 0.80962104 326.5
3.7784433 -1.2494413 0.98618317 271
3.7329471 -1.1456819 0.98703355 328.33334
3.7525148 -1.1371429 0.92937696 317
3.6765356 -0.98673141 0.95984703 540.42859
3.7096543 -0.85185194 0.95141345 366
3.8316987 -0.81064123 0.97861522 324.20001
3.9281991 -0.81071889 0.93920553 299
3.6880577 -1.12398 1.1596649 1330.6667
3.7962928 -1.1641613 1.1225522 299
3.6873124 -0.97935939 1.1334743 1036.5
3.7018027 -0.84072274 1.127106 1545
3.8054609 -0.77136385 1.1300663 321.33334
3.7182431 -0.74974656 1.1707484 2041
3.7798648 -1.0532153 1.2995234 305
3.6552689 -0.9248324 1.2584413 1491
3.8575101 -0.97437358 1.3122716 255
3.8202624 -0.8757416 1.2957494 293
3.7482657 -0.95703971 1.4720632 354
3.8071089 -0.99283195 1.3970593 297.33334
3.9332676 -0.88357139 1.4226118 378
3.8336723 -1.0569948 1.5069143 241
3.8674877 -0.96644467 1.5083907 422
