# .PCD v0.7 - Point Cloud Data file format
VERSION 0.7
FIELDS x y z intensity
SIZE 4 4 4 4
TYPE F F F F
COUNT 1 1 1 1
WIDTH 1
HEIGHT 53
VIEWPOINT 0 0 0 1 0 0 0
POINTS 53
DATA ascii
4.0140562 1.9225736 0.05525849 385
3.8422933 1.9713167 0.031795613 293.33334
3.9350724 2.0084901 0.083121791 303
4.1064315 1.9849226 0.072494119 278
4.2921739 2.1789227 0.087057143 481
4.2790494 2.3292546 0.055871904 340.5
4.033174 1.9244051 0.19932103 382.5
3.9783201 2.0500479 0.20108375 343.5
4.1367788 2.0993729 0.1606009 424
4.3600259 2.2253726 0.22205663 350
4.275115 2.3389325 0.18869871 365
4.0428653 1.9275587 0.30336621 364
4.0764709 1.9390327 0.38032109 344
4.0260763 2.0659688 0.3049013 394
4.1079569 2.0336127 0.38194329 380
4.2527094 2.1737487 0.34277308 345
4.2343779 2.3120086 0.34516948 339.5
4.1468086 1.9771454 0.50873482 396.5
4.1676126 2.1531811 0.52366066 353
4.1780782 2.2979226 0.51951182 382
4.2058091 2.273632 0.47334987 368
4.2356339 1.8586863 0.7406956 220
4.1499925 1.9997166 0.70354694 333.60001
4.2905145 1.955493 0.65144181 288
4.1398869 2.1440265 0.67608678 322.25
4.1776652 2.3039496 0.66173434 297
4.2168188 2.3842297 0.66773677 253
4.1281881 1.9295994 0.83509016 999
4.280694 1.8725615 0.84594631 309
4.0199971 2.0685763 0.83436882 2653
4.0792503 2.0100138 0.83583182 2384
4.0439329 2.1496041 0.84221524 1737
4.1288562 2.2058606 0.75221646 299
4.1471472 2.3109355 0.81185359 321.75
4.1712122 1.9264913 0.94145542 326
4.2881484 1.86876 0.9508363 291
4.1416063 2.0303094 0.98095059 340.33334
4.096283 2.1431313 0.94985855 311
4.1179934 2.2903314 0.96453983 316
4.1810379 1.9322466 1.1197746 380.33334
4.2161708 1.9351062 1.0532099 315
4.0387378 2.0900221 1.1494453 2177
4.1129827 2.0328493 1.118907 1383
4.1118698 2.154633 1.0948356 314.33334
4.1043587 2.278928 1.1242661 491.5
4.0925965 1.8828126 1.2444773 2681
4.1825442 2.075634 1.2818893 321
4.2738729 2.0851114 1.2992541 299
4.1456161 2.1642456 1.285616 286.5
4.282568 2.0934031 1.4174554 297
4.3444114 2.1533802 1.4373593 281
4.3381152 1.9882355 1.5331141 324
4.2743883 2.1687603 1.5431879 220.5
