# .PCD v0.7 - Point Cloud Data file format
VERSION 0.7
FIELDS x y z intensity
SIZE 4 4 4 4
TYPE F F F F
COUNT 1 1 1 1
WIDTH 1
HEIGHT 68
VIEWPOINT 0 0 0 1 0 0 0
POINTS 68
DATA ascii
0.54826164 -2.6859093 0.12798895 279
0.79876828 -2.5343161 0.12963651 392
0.91859758 -2.5052357 0.11524991 331.5
1.1787238 -2.4301395 0.1057302 314.5
1.2092103 -2.45666 0.1331452 406
0.53394383 -2.7214684 0.21947804 268
0.56870621 -2.6957345 0.23204929 307
0.79198468 -2.5707867 0.22417705 344.66669
0.88167024 -2.5045624 0.24156244 370.00003
0.92647821 -2.4842992 0.22988708 358.25
1.1715002 -2.452605 0.2172787 351.80002
1.2611661 -2.433547 0.21118906 261.33334
1.2635069 -2.375433 0.23238097 397
0.55833119 -2.7284503 0.36159313 312.57144
0.82137078 -2.590662 0.37416315 289.80002
0.86508489 -2.5150363 0.38047796 358.5
0.93748999 -2.5204778 0.38659251 364.66669
1.1554382 -2.4296734 0.37084401 370.66669
1.2504644 -2.4447737 0.35750568 324
1.2795224 -2.3700576 0.38869214 404
0.59772587 -2.7044559 0.49317306 328
0.59585202 -2.6479628 0.54426312 372
0.79997653 -2.5717223 0.52356613 351
0.9116537 -2.583118 0.53370637 330
0.82647824 -2.5227101 0.58473688 384
0.95114911 -2.5164461 0.52804071 372.83334
1.1569014 -2.4461792 0.52129072 404
1.231931 -2.4543366 0.52055109 245
1.2856407 -2.3554463 0.51369739 289.33334
0.60661566 -2.6522377 0.66112077 332
0.79020631 -2.5617781 0.68695372 348.33334
0.92448986 -2.6495638 0.71874154 260
0.82117128 -2.5037405 0.63964367 382
0.96239531 -2.5116305 0.66971928 351
1.1529388 -2.4440179 0.66244662 414
1.2091755 -2.4030309 0.62823939 231
0.97227395 -2.3995659 0.7435168 1993
1.1909804 -2.3608804 0.71160048 359
1.2306432 -2.1944358 0.66085154 329
0.61185014 -2.5724387 0.83507419 327
0.77296662 -2.5908339 0.77371395 303
0.59789169 -2.5054219 0.7610333 2905
0.79928696 -2.4887519 0.81881785 1342.5
0.94412792 -2.4412007 0.81164426 1047
1.1463478 -2.4332285 0.81530797 313
0.9677434 -2.3669376 0.79813409 2707
1.1516507 -2.3233874 0.81586623 2112.3335
1.2497826 -2.203701 0.83775204 399.66669
0.61967194 -2.5915115 0.90382862 321
0.7863726 -2.6718292 0.95538044 283.5
0.94868243 -2.6402121 0.95151067 357.5
1.1260055 -2.6150591 0.98537135 299
0.6170041 -2.5143437 0.98460084 389
0.81240571 -2.4866817 0.97934324 343
0.99273002 -2.416364 0.93460906 347
1.0985144 -2.5142071 1.0294229 335
0.98528641 -2.3657269 1.0184968 395
1.1524227 -2.3156714 0.96631217 385.5
1.0772116 -2.2486045 0.96101832 465
1.27267 -2.2258425 1.0000246 394
0.94408929 -2.7488973 1.0841273 269
1.1453651 -2.6386132 1.1359879 281
0.6213063 -2.4708664 1.1046236 418
0.79289389 -2.4055507 1.120533 402.33334
0.98757094 -2.3391523 1.140645 449
1.136175 -2.3254929 1.1125445 961
1.3137841 -2.2989943 1.1211941 234
1.1333847 -2.2282286 1.0845507 1835
