# .PCD v0.7 - Point Cloud Data file format
VERSION 0.7
FIELDS x y z intensity
SIZE 4 4 4 4
TYPE F F F F
COUNT 1 1 1 1
WIDTH 1
HEIGHT 87
VIEWPOINT 0 0 0 1 0 0 0
POINTS 87
DATA ascii
3.4871705 -3.3651597 1.4810158 253
3.5284698 -3.2275507 1.4609693 230
3.6665065 -3.1960962 1.4767283 231
3.5471668 -3.6253197 1.5408547 263
3.3552952 -3.574748 1.6262636 321
3.4741771 -3.5253911 1.6342208 293
3.3250525 -3.3673205 1.5757601 321
3.5284333 -3.36321 1.5775445 319.75
3.6881251 -3.407326 1.51949 295
3.8154714 -3.1736693 1.6200711 445
3.2145534 -3.7869956 1.6534991 309
3.1570895 -3.6988549 1.7478564 377
3.330101 -3.7217627 1.6554986 301
3.2009873 -3.4796295 1.7005283 313
3.1591003 -3.3246937 1.6555068 293
3.5422635 -3.4238691 1.7475893 283
3.8434186 -3.3633196 1.7263107 327.5
3.0928502 -3.2870486 1.7487991 317
3.2540374 -3.2817178 1.6619031 314
3.3768806 -3.2264996 1.6713225 313
3.5037951 -3.2054477 1.6903818 318
3.6681547 -3.1751158 1.7155007 397
4.0088463 -3.2302501 1.7528884 349.66669
4.1707397 -3.1579783 1.6836619 360
3.6910326 -3.0515113 1.6933329 357
4.105299 -3.1087325 1.7910799 404
3.6130712 -3.6579654 1.9454937 287
3.5927105 -3.4801612 1.8962824 297
3.1686084 -3.3784814 1.9040775 497
3.352483 -3.398134 1.827628 417
3.4722915 -3.3136349 1.8301191 331
3.675715 -3.4056053 1.8947725 293
3.5612144 -3.2253666 1.8267663 277
3.6788368 -3.1738451 1.8395096 289
3.8207469 -3.2676625 1.8926303 286
4.0139852 -3.1652346 1.9119945 251
3.4943414 -3.0529747 1.8873901 367
3.7617791 -3.1036699 1.841285 273
4.1443534 -3.1441453 1.9372725 428
3.5466866 -3.7567906 1.9582577 305
3.25425 -3.6900964 2.0110502 275
3.0994408 -3.5835886 2.0695341 293
3.2269428 -3.5463998 2.0852942 307.33334
3.3280325 -3.4802945 2.0874381 237
3.5204647 -3.512177 2.0156074 301.66669
3.4072878 -3.407872 2.083998 339
3.4853108 -3.3151677 1.9542947 291
3.6091743 -3.3425267 1.9893392 289
3.5418842 -3.2453804 2.0287976 297
3.67855 -3.1623776 1.9585879 289
3.8573904 -3.1774573 2.0050819 295
3.6906326 -3.0706239 2.0587299 269
3.7917421 -3.0021081 2.0671999 249
3.8853054 -2.9409308 2.0766711 249
3.8345659 -2.8146603 2.0311325 192
3.0781307 -3.6404283 2.2029793 251
3.046654 -3.5033777 2.1498053 255
3.2076561 -3.4681344 2.1753821 290
3.4634309 -3.527302 2.1323302 273
3.6260979 -3.5222185 2.1688516 293
3.0793548 -3.4046214 2.2379317 283
3.2296653 -3.3559904 2.1443665 303
3.5344226 -3.3466201 2.1773109 285
3.2212076 -3.2225361 2.1558275 295
3.3571939 -3.2262068 2.1732907 289
3.6829028 -3.2349575 2.1014192 339
3.76595 -3.2320156 2.1216686 358
3.6807075 -3.0651138 2.1738362 271
3.7801766 -2.9272261 2.1635742 261
3.2236261 -3.3876989 2.2685509 285
3.5435174 -3.3391726 2.3376045 416
3.5127914 -3.2562077 2.3022969 428
3.6992052 -3.2298446 2.3471804 399
3.9187694 -3.2092037 2.2813044 402
3.8245518 -3.1154664 2.3491135 316
3.4956694 -3.278765 2.4204328 241
3.6480899 -3.2270093 2.4864836 275
3.7590899 -3.1919827 2.4715528 267
3.6897924 -3.0838726 2.5279777 287
3.8405037 -3.1286705 2.4771399 322
3.6116326 -3.3847778 2.6076531 982
3.6359584 -3.2296352 2.5604355 297
3.7554379 -3.1622434 2.6319847 294
3.5597184 -3.1356273 2.6108336 255
3.8289919 -3.0661068 2.6056745 289.66669
3.9295471 -2.991509 2.5792747 273
3.7221496 -2.9642506 2.7104566 416
