# .PCD v0.7 - Point Cloud Data file format
VERSION 0.7
FIELDS x y z intensity
SIZE 4 4 4 4
TYPE F F F F
COUNT 1 1 1 1
WIDTH 1
HEIGHT 54
VIEWPOINT 0 0 0 1 0 0 0
POINTS 54
DATA ascii
3.3803024 -4.9259253 0.57400584 246
3.384217 -4.9131494 0.69138539 258
3.5537164 -4.9306531 0.69383407 214
3.5357978 -4.7246494 0.68054903 362
3.3888717 -4.9013348 0.81383121 226
3.5462179 -4.9253364 0.81884503 214
3.5471256 -4.746769 0.80434132 368
3.392514 -4.887732 0.94066107 322
3.5178659 -4.88835 0.94464517 242
3.5420866 -4.7449512 0.93115103 360
3.1268995 -4.9631009 1.0723152 190
3.1002347 -4.8957481 1.1967267 222
3.2888536 -4.8399425 1.1983922 210
3.3949859 -4.8720913 1.0718573 352
3.542773 -4.9312673 1.0854295 210
3.5262601 -4.7500372 1.063133 252
3.6479683 -4.5950608 1.0509007 140
3.1361909 -4.9366069 1.3426214 186
3.2799015 -4.8305001 1.3343469 206
3.4154418 -4.884263 1.2115675 308
3.5284231 -4.9148145 1.2222373 208
3.5435336 -4.7702293 1.2730303 239
3.6150296 -4.5597744 1.3156104 216
3.6336517 -4.4492803 1.3001136 232
3.1248219 -4.8957033 1.4757727 160
3.2768741 -4.8303733 1.475257 146
3.4189954 -4.8699903 1.3501235 344
3.5290835 -4.9208078 1.3659461 188
3.5562434 -4.7604041 1.4858608 162
3.6411402 -4.5999427 1.4651953 336
3.6626861 -4.4706445 1.4447796 208
3.1333258 -4.8888903 1.6187603 174
3.5368395 -4.9373579 1.5159392 196
3.6347423 -4.5956159 1.6080587 172
3.6775301 -4.473063 1.5889559 202
3.1571286 -4.9080977 1.7713473 234
3.5278175 -4.9283633 1.6632262 112
3.6151435 -4.8072586 1.7982302 178
3.6296437 -4.5929441 1.7532043 198
3.6782548 -4.4569626 1.7300613 216
3.5435059 -4.9566383 1.823192 160
3.1589053 -4.8896165 1.9151704 222
3.6174071 -4.7912312 1.9470134 192
3.6189826 -4.5825739 1.8972629 200
3.7009344 -4.469388 1.8820513 204
3.1798944 -4.9035368 2.0709815 158
3.6407807 -4.6165462 2.0583611 210
3.7294836 -4.489222 2.0394545 232
3.5341072 -4.9511957 2.1310475 178
3.2082877 -4.9297156 2.2330754 200
3.6302309 -4.7902632 2.1021104 164
3.6344347 -4.6119676 2.2064331 192
3.748204 -4.4961591 2.1936989 198
3.6787851 -4.839994 2.2781386 312
