# .PCD v0.7 - Point Cloud Data file format
VERSION 0.7
FIELDS x y z intensity
SIZE 4 4 4 4
TYPE F F F F
COUNT 1 1 1 1
WIDTH 1
HEIGHT 59
VIEWPOINT 0 0 0 1 0 0 0
POINTS 59
DATA ascii
0.10304539 -1.2478964 0.27153462 312
0.22183263 -1.2545592 0.26813376 286.38461
-0.026013851 -1.0679129 0.27668279 307
0.095513038 -1.1109183 0.2812885 310.66669
0.16663399 -1.1521163 0.27477527 307
-0.0055505335 -1.0287298 0.28460982 317
0.070088394 -0.98235303 0.28416684 332.39999
0.15134782 -1.0244863 0.26933718 314
0.086345501 -1.251729 0.36216083 312.42859
0.23623072 -1.2503469 0.36503327 291.77777
-0.037874322 -1.1020237 0.36816978 319.27274
0.11762322 -1.1518935 0.36776468 324.17648
0.18785967 -1.1650966 0.38072872 325.02856
-0.0016998202 -1.0361025 0.32288399 351
0.066905148 -0.98981166 0.36752522 399.19354
0.15244794 -0.95916712 0.33873379 364.33334
0.090667866 -1.2330141 0.50662249 320.66669
0.25687298 -1.2270045 0.48002875 309
0.093189083 -1.1060748 0.54182923 427.77274
0.21866962 -1.1172773 0.52462846 395.85104
0.35894606 -1.0877395 0.58316839 323
0.077563725 -0.99603814 0.51595104 446.10001
0.24638519 -1.0415151 0.56344318 439
0.3540349 -1.0313959 0.59750074 409
-0.016830578 -1.090675 0.67772174 348
0.077334873 -1.0881834 0.68192023 657.82758
0.21549734 -1.1176413 0.66502106 625.7027
0.32886237 -1.1076788 0.67009032 394
0.085586406 -1.0164889 0.67363209 724.29999
0.20503393 -1.0249405 0.68468398 904.5
0.3461512 -1.0263567 0.64120531 412.5
0.25288793 -1.220829 0.83287656 579.22223
0.32928926 -1.2283968 0.85697019 307
-0.019935643 -1.1399868 0.81632733 613.33337
0.07229089 -1.1021466 0.82854086 795.43243
0.21252435 -1.137851 0.82731891 767.3125
0.33327326 -1.1543763 0.81691682 340.63638
0.12825435 -1.0215428 0.80373567 959.28577
0.218164 -1.0425162 0.79825342 944.33337
0.30358064 -1.3599427 1.0348045 567
0.25322467 -1.2333614 0.98924851 608.70587
0.32597965 -1.2582138 0.95075005 333.33334
-0.044988256 -1.1349428 0.99865419 441.74075
0.076692745 -1.1164651 0.98254585 731.53058
0.19975264 -1.132501 0.97904164 931.48651
0.32848141 -1.1848738 0.97381288 458.60001
-0.041093528 -1.0464501 1.0144148 559
0.13210224 -1.0402998 0.96185154 760.33337
0.33179766 -1.3693612 1.1041453 388.33334
0.23134984 -1.2272087 1.1221404 594.90479
0.3352775 -1.2590652 1.1022154 501.71429
-0.049483422 -1.1143124 1.1023762 634.70374
0.062944725 -1.1282722 1.1102263 677.82611
0.20198104 -1.1470969 1.1033123 754.25
0.33566537 -1.1912563 1.0573652 567
-0.017153412 -1.0435011 1.0665559 665
0.18376154 -1.3518164 1.2691977 271
0.30533165 -1.3565731 1.2292895 267
0.074112222 -1.1907656 1.205071 543
