# .PCD v0.7 - Point Cloud Data file format
VERSION 0.7
FIELDS x y z intensity
SIZE 4 4 4 4
TYPE F F F F
COUNT 1 1 1 1
WIDTH 1
HEIGHT 69
VIEWPOINT 0 0 0 1 0 0 0
POINTS 69
DATA ascii
-1.4261484 5.0430417 0.03422907 204
-1.4236875 5.2398119 0.067172498 244
-1.3369198 5.2005587 0.022575766 214
-1.1954765 5.2273674 0.01874581 240
-1.535956 5.3390965 0.1187979 202
-1.3110306 5.3392634 0.059512794 208
-1.5094085 5.5329018 0.1087649 288
-1.1761078 5.4029613 0.053380162 266
-1.5104548 5.727396 0.099151701 292
-1.402642 5.8000898 0.093461514 275
-1.2949193 5.8817029 0.087203771 284
-1.1881417 6.1082873 0.073508114 236
-1.0121908 6.0983801 0.070013523 162
-1.3128649 6.2082214 0.10815878 302
-1.5863471 5.4672937 0.21700716 369
-1.5086139 5.6134696 0.22325331 242
-1.5102984 5.7112141 0.16890395 296
-1.363943 5.7649708 0.20208496 312
-1.461787 5.9308619 0.19905835 288
-1.3188727 6.0279932 0.19234195 303
-1.3167657 6.1948433 0.22789766 288
-1.5948865 5.4674354 0.38247463 376
-1.5117359 5.6808953 0.37852466 290
-1.4886746 5.5744104 0.37849796 287
-1.3738377 5.7696667 0.37363261 309
-1.4534199 5.9741406 0.37541044 293
-1.3079357 6.0664177 0.37010145 296
-1.3217895 6.1888471 0.3698085 291
-1.6073456 5.4870667 0.52572203 376
-1.5124272 5.6646047 0.52517354 298
-1.4764193 5.5847702 0.52227139 288
-1.3652451 5.7193837 0.52036023 294
-1.446174 6.0060601 0.5288586 268
-1.3057992 6.1127186 0.52535659 284
-1.6082652 5.4747367 0.6862756 384
-1.5104717 5.6472487 0.63229179 314
-1.479769 5.6477308 0.68796092 309
-1.3640312 5.7030287 0.62772238 286
-1.442697 6.0337877 0.64311546 280
-1.2910634 6.1090746 0.63919228 292
-1.3270912 6.1719813 0.64303601 264
-1.6156023 5.4823241 0.86090744 400
-1.5263518 5.738677 0.83368248 318
-1.4075241 5.8377991 0.81332421 314
-1.4342368 6.0661173 0.82935411 332
-1.3083205 6.1477866 0.82816827 304
-1.305333 6.1655693 0.82896972 299
-1.6278526 5.5094848 0.98779047 410
-1.5287603 5.6757541 0.99683917 308
-1.4519682 5.8081923 1.0044463 313
-1.6294973 5.5063119 1.1168542 414
-1.5289227 5.6676784 1.1280162 348
-1.4439476 5.7962689 1.1368997 323
-1.6343473 5.5129089 1.2527169 408
-1.5185537 5.6270304 1.2590007 338
-1.4415567 5.8041658 1.2773943 291
-1.6365421 5.5122595 1.3919768 412
-1.509944 5.5925131 1.393608 338
-1.4744486 5.8421135 1.4304962 300
-1.6364329 5.5052876 1.5333631 412
-1.5147201 5.6004505 1.5390067 332
-1.4692695 5.8665018 1.5835563 236
-1.6429102 5.5176535 1.6828064 416
-1.5074745 5.5710449 1.6796812 382
-1.3557041 5.6021476 1.6711329 390
-1.6342238 5.4866476 1.8246853 400
-1.5131055 5.5823975 1.8330365 352
-1.3702569 5.6455274 1.8324132 380
-1.4181144 5.7779517 1.8681595 386
