# .PCD v0.7 - Point Cloud Data file format
VERSION 0.7
FIELDS x y z intensity
SIZE 4 4 4 4
TYPE F F F F
COUNT 1 1 1 1
WIDTH 1
HEIGHT 54
VIEWPOINT 0 0 0 1 0 0 0
POINTS 54
DATA ascii
4.0338693 0.58098114 0.070126101 387
4.0605874 0.58513772 0.065784782 412
4.0184798 0.64208102 0.070234001 361.66669
4.088336 0.67687905 0.064757541 319.33334
4.3495088 0.87497449 0.096173495 394
4.3258486 0.97526157 0.079008691 368.66669
4.4384012 0.95037049 0.053244822 367
4.0310092 0.58893418 0.17199174 398
4.0632601 0.59815532 0.23019359 396
4.1089354 0.676153 0.24472481 394.22223
4.2919016 0.87064469 0.22453496 379.66669
4.2929549 0.96884108 0.21129163 357.20001
4.1681094 0.67767441 0.38452879 356.75
4.2140436 0.68753719 0.42309165 260.25
4.177702 0.84436357 0.44330612 394
4.2201777 0.85407114 0.36681148 391
4.253273 0.55141735 0.52349555 252
4.2293053 0.66596901 0.5238502 303.33334
4.2356968 0.82304382 0.52634519 247
4.1145186 0.94602305 0.52345562 287
4.1645164 0.59914714 0.69028169 311
4.1204538 0.69324207 0.64539105 333.33334
4.250051 0.61745721 0.60930216 285
4.1505938 0.84516299 0.66506147 321.66669
4.2256398 0.82887495 0.61150146 267
4.1197166 0.93528676 0.6364485 336
4.2273622 0.91916859 0.70284647 301
4.1569352 0.59038651 0.82605082 829
4.3306742 0.49875244 0.89249372 333
4.415493 0.50303578 0.85396051 306
4.0193191 0.72725022 0.76794696 3305
4.1017756 0.68163818 0.83084089 1227.8
4.0431147 0.78033888 0.77196479 2799
4.0979466 0.85153514 0.82603633 600.5
4.2233143 0.88980967 0.88971364 313
4.1549573 0.96995884 0.83708096 281
4.1702046 0.58483398 0.9684149 355
4.2900705 0.57786673 0.98672712 313
4.3977633 0.54528934 0.95247585 282
4.1581407 0.674034 0.96929568 329
4.0329185 0.85821599 0.95709217 341
4.1129761 0.80239266 0.96703756 340.33334
4.1714659 0.5732457 1.0983374 1841
4.2761121 0.5842461 1.1864693 336
4.1332355 0.67388666 1.0949817 1593
4.2181115 0.66857862 1.1778535 313
4.0331507 0.75766766 1.144379 2315
4.0805359 0.81093466 1.0911841 811.66669
4.2396045 0.90551263 1.1933582 265
4.3108311 0.69877303 1.3025733 290.5
4.2465072 0.79339594 1.2925923 345.5
4.3365202 0.70250291 1.4151384 247
4.2827749 0.79992133 1.4068012 344.5
4.3147044 0.79773289 1.5220865 271
