# .PCD v0.7 - Point Cloud Data file format
VERSION 0.7
FIELDS x y z intensity
SIZE 4 4 4 4
TYPE F F F F
COUNT 1 1 1 1
WIDTH 1
HEIGHT 52
VIEWPOINT 0 0 0 1 0 0 0
POINTS 52
DATA ascii
0.9116261 -5.7465959 0.4396776 286
1.0517176 -5.798912 0.43624306 232
0.82508481 -5.8002167 0.54920536 272
1.0554044 -5.8150301 0.54288638 380
0.85079157 -5.9043789 0.66634983 318
1.0576448 -5.8542371 0.65781498 358
0.75854093 -5.8411236 0.66544282 260
1.2227719 -5.7560673 0.64806902 362
1.0569468 -5.6840358 0.64827859 328
0.97418094 -6.0107832 0.79185855 420
1.1145318 -6.0181966 0.78900397 468
0.85538352 -5.9048519 0.78684098 299
1.0665855 -5.942131 0.78434002 386
1.2381786 -5.9048967 0.77758241 378
1.2384363 -5.7481894 0.76567507 338
1.4261204 -5.7626152 0.88782692 354
1.0668349 -5.6019721 0.87863147 400
1.1636602 -5.4656682 0.86350572 390
1.3075893 -5.4842005 0.86281526 318
1.0715227 -5.9991741 0.91719651 416
1.2719278 -5.879787 0.90167689 376
1.3882718 -5.9243345 1.03728 300
0.88795209 -5.8451562 0.90632725 384
1.0338962 -5.7356606 1.0202874 404
1.1031624 -5.778451 1.024147 508
1.4269338 -5.7105436 1.0115806 354
1.1796682 -5.5781655 0.99907291 390
1.4020286 -6.0101862 1.1879159 392
1.5397592 -6.0897918 1.1265893 278
0.88972116 -5.9068155 1.1803533 360
1.0628685 -5.9707932 1.18639 624
0.8408618 -5.8339295 1.170941 398
1.1599801 -5.7666287 1.1560404 486
1.2574159 -5.6635008 1.1403034 400
1.2482129 -6.0269127 1.3367357 572
0.86535931 -5.963552 1.331287 640
1.1407824 -5.8773041 1.3130136 644
1.4872526 -5.8909144 1.3132679 526
0.51794964 -5.8034883 1.3125941 390
0.67409217 -5.7471423 1.2992022 400
0.85988963 -5.64186 1.2778753 362
1.0013058 -5.6832151 1.282548 429
1.2547473 -5.5836921 1.2636204 402
1.0169941 -5.8838229 1.4598565 570
1.4962772 -5.8762422 1.4567249 206
0.87002087 -5.7575035 1.4377629 460
1.0394478 -5.8255992 1.4485568 482
1.3455666 -5.7329297 1.42949 352
1.5049995 -5.8463664 1.4511601 388
0.72689044 -5.624867 1.414974 392
1.2634367 -5.5687089 1.3986057 410
1.1282189 -5.4987526 1.3858955 326.5
