# .PCD v0.7 - Point Cloud Data file format
VERSION 0.7
FIELDS x y z intensity
SIZE 4 4 4 4
TYPE F F F F
COUNT 1 1 1 1
WIDTH 1
HEIGHT 65
VIEWPOINT 0 0 0 1 0 0 0
POINTS 65
DATA ascii
1.7598575 1.2785031 0.12761183 298.5
1.8455647 1.2429161 0.1312263 276
1.8312745 1.1873418 0.2315183 285
1.7620506 1.2766562 0.1885508 281
1.8396342 1.248834 0.21481945 284.53848
1.8826519 1.363113 0.22482464 276
1.9931172 1.3923659 0.29670599 295
2.1458995 1.3623776 0.22537434 281.39999
1.8785716 1.1765993 0.40190902 290.44446
1.8582424 1.240436 0.36560848 288
1.8979025 1.3840506 0.3369025 273
1.9723595 1.3881849 0.39173603 280.60001
1.8637123 1.1699225 0.53763556 296.81818
1.9583234 1.157987 0.53886008 277
1.880698 1.3001709 0.53648406 295
1.9190588 1.40395 0.53772557 287
1.9824197 1.4540204 0.48010182 281
2.114954 1.0298682 0.74206841 370
1.7581733 1.1157491 0.71179789 621
1.8727732 1.1270119 0.66471863 337
1.9982462 1.1193153 0.67229158 293
2.1545718 1.1016499 0.68831813 322.75
1.748006 1.2457423 0.69552583 523.57147
1.8395689 1.2710993 0.6410827 299.33334
1.6003721 1.3611729 0.71491432 382
1.7110965 1.394243 0.6920163 307.33334
1.8765981 1.4063702 0.65082145 318.66669
1.7731481 1.0463376 0.81002879 2677
1.8363981 1.0401992 0.81321335 2081
1.9895579 1.0189323 0.84889519 406
1.725015 1.1223412 0.82139009 2696.2002
1.8509946 1.0755224 0.80538428 528.66669
2.0330312 1.0618908 0.81957412 360.33334
1.7161006 1.2827524 0.81582487 791.25
1.7513398 1.3798884 0.82884705 349.20001
1.9299135 1.0173322 0.95736301 445.75
1.9709036 0.97682726 0.9820174 502.28574
1.7861093 1.1521497 0.97908175 539.75
1.8540646 1.0940745 0.96274567 501.14288
2.0467079 1.1095351 0.90117812 307
1.7430385 1.2899147 0.97492421 567.80951
1.7264434 1.3825837 0.96551096 327.5
1.8880305 1.0183059 1.1231956 1495.5715
1.9863873 1.0200363 1.1218369 416
1.7696307 1.1402016 1.1470333 1706.4546
1.8486429 1.0957469 1.1078601 674.11115
1.7383955 1.2653514 1.1191628 857.73688
1.7658365 1.3877845 1.1880541 296
1.9047072 1.0225556 1.2063954 1142
1.7426466 1.1083187 1.2173587 2593
1.8730217 1.1408128 1.2862172 395.625
2.0134647 1.0758883 1.2845452 302
1.7387173 1.2721535 1.2323912 918.25
1.8748901 1.2762617 1.316601 328.33334
1.7374293 1.3652912 1.2496887 320
1.8022606 1.3597785 1.3184707 253
1.8981436 1.168528 1.4280007 273
1.9722801 1.1469796 1.4188591 262
1.9127908 1.2720263 1.4410172 319.25
1.9752452 1.3165042 1.4261672 276
1.9145846 1.4052277 1.4720926 296.5
1.9866549 1.4301152 1.482419 365.5
1.9292586 1.1764591 1.5239892 409
1.9173788 1.2452197 1.5325931 312.5
1.9596736 1.2660191 1.5303617 285
