# .PCD v0.7 - Point Cloud Data file format
VERSION 0.7
FIELDS x y z intensity
SIZE 4 4 4 4
TYPE F F F F
COUNT 1 1 1 1
WIDTH 1
HEIGHT 60
VIEWPOINT 0 0 0 1 0 0 0
POINTS 60
DATA ascii
3.8522968 -0.63214254 0.10442285 295
3.9731257 -0.64723408 0.028319895 290
4.0601587 -0.60376549 0.021261483 293
3.8951056 -0.53890854 0.078317583 417
3.9510875 -0.52034175 0.075938597 323.33334
3.8786373 -0.44659123 0.1269722 380
3.8910055 -0.64499265 0.17844903 349
4.0015774 -0.67080998 0.2641401 347.5
4.0635166 -0.68356824 0.29529849 264
3.8956437 -0.45673466 0.23789567 246
3.9541166 -0.51452065 0.24299036 321
4.0553327 -0.58632922 0.20064412 331
4.0355234 -0.68303424 0.36506894 398
4.0878444 -0.6858393 0.41492137 374.66669
3.8727865 -0.46374506 0.39839029 420
3.9423122 -0.52630365 0.39941615 377.83334
3.9869838 -0.6684258 0.59365594 393
4.1074228 -0.6600284 0.5186817 352.33334
3.8654077 -0.47057009 0.5447551 410
3.9707563 -0.51603442 0.55888712 281.60001
4.1402512 -0.82473981 0.69313908 384
4.221673 -0.89502001 0.70172513 279
3.841784 -0.61541444 0.74615812 321
3.9819241 -0.66687471 0.67623162 247
3.8628378 -0.51269794 0.72560012 330.25
3.9495349 -0.56119847 0.67141652 257
3.9944892 -0.4459241 0.67335391 237
4.1388941 -0.84208697 0.84577054 303
4.2082648 -0.88650233 0.79261315 297
3.8542011 -0.65196395 0.8052389 1093.6667
3.9611332 -0.73044306 0.80600542 306
3.8342311 -0.5217526 0.82807559 582.33337
4.0036221 -0.43997663 0.80378807 310.5
4.0984621 -0.33264667 0.85908043 272
4.1899328 -0.26353616 0.77776122 291
4.0264454 -0.82324523 1.0018941 324.5
3.8517199 -0.64158148 0.96635866 782
3.948426 -0.71791363 0.98490506 315
3.8275907 -0.52227163 0.9585917 1543.3334
3.8485761 -0.40382949 1.0028954 375
4.029376 -0.32636708 0.94075006 277
4.0958128 -0.83983362 1.1610715 426
3.9138954 -0.69950283 1.1176109 325
3.8242865 -0.54072541 1.1387316 680.5
3.8588138 -0.40509042 1.1262825 319.66669
3.9860981 -0.81057638 1.2346507 224
3.8697202 -0.69032377 1.2018437 1769
3.9206836 -0.66794699 1.2762378 470.33334
3.7491648 -0.48660919 1.2560947 2443
3.840709 -0.54059577 1.2817826 1249
3.8855174 -0.41285044 1.2881649 412
3.9173033 -0.60817325 1.4005429 341
3.8612878 -0.48466316 1.473472 432
3.9503531 -0.53554183 1.430387 304.75
3.9780049 -0.42732295 1.4094787 234
3.8954201 -0.61193544 1.5863276 164
3.9360249 -0.61504191 1.5031047 315
3.8845162 -0.51679081 1.5772346 416
3.9433999 -0.59401119 1.504167 309
3.9998651 -0.41919625 1.5132451 304.5
