# .PCD v0.7 - Point Cloud Data file format
VERSION 0.7
FIELDS x y z intensity
SIZE 4 4 4 4
TYPE F F F F
COUNT 1 1 1 1
WIDTH 1
HEIGHT 66
VIEWPOINT 0 0 0 1 0 0 0
POINTS 66
DATA ascii
-0.17119291 1.6116339 0.26430625 410.5
-0.071145296 1.5646585 0.26527515 499.16669
-0.27556664 1.8578405 0.24531198 325
-0.17138487 1.6055171 0.34400305 365
-0.072870642 1.5779908 0.36259586 471.12903
0.012330762 1.58754 0.41335908 454.60001
-0.20673034 1.6712141 0.37038326 313
-0.14557442 1.7989531 0.39974675 427
-0.25280747 1.9041172 0.3748273 339.60001
-0.090802863 1.869077 0.35902902 366.66669
-0.15230949 1.6247772 0.54799414 369
-0.065752909 1.5831391 0.52418894 485.48276
0.01706174 1.5836362 0.5111959 466.66669
-0.18726459 1.71427 0.51491833 281.66669
-0.010351494 1.8449742 0.56403959 443
-0.18951182 1.5906006 0.68067467 383.93335
-0.080579154 1.5978365 0.67860746 447
0.013334408 1.6218469 0.65372169 365
-0.30367479 1.6504483 0.70497417 261
-0.26919231 1.7976202 0.68267024 331
-0.0285514 1.6573429 0.70425415 335
0.023797382 1.7308815 0.72279859 438
-0.015377164 1.8685151 0.65335917 346
0.039547548 1.8121932 0.68566823 370
-0.21645021 1.5819373 0.79470921 366.39999
-0.098260514 1.6095276 0.80407 436.05884
0.018866926 1.639806 0.76066923 333
-0.048547909 1.6780035 0.83455646 425.66669
0.015596887 1.7126069 0.82323074 473.16669
0.036121108 1.8258655 0.82810271 341
-0.19625042 1.6310666 0.93480712 352
-0.10067763 1.6423492 0.97826594 520.27277
-0.20050636 1.6651059 1.0158542 387
-0.060395021 1.6921089 0.97642118 483.25
0.017396152 1.7149787 0.95074886 510.5
0.031612985 1.8514299 0.95701367 337
0.016326338 1.9700297 0.9969573 321
-0.17612748 1.6161497 1.1281676 443
-0.11044735 1.6331939 1.1134896 477.85718
-0.20232025 1.6846066 1.0701932 363
-0.063188128 1.7013068 1.1304264 427.83334
0.026307255 1.7463087 1.0904101 487
0.21837749 1.7360917 1.1846554 635
-0.013834268 1.8239783 1.1259079 376
0.073667578 1.8628415 1.1462284 353.46155
0.17797248 1.807592 1.1747805 583
0.052433543 1.9959795 1.0825021 250.5
-0.16193382 1.6019205 1.2456539 402.33334
-0.11675986 1.6237259 1.2387586 413.5
-0.071806379 1.7322387 1.2638229 351.20001
0.11829937 1.7883132 1.2165862 361
0.22105052 1.7653933 1.2429903 535
-0.046386931 1.8377149 1.2830063 336.14288
0.070232444 1.8570993 1.2763747 298.16669
0.16336682 1.8621283 1.232025 309
-0.036318272 1.9595678 1.3134772 265
0.0086691976 2.013231 1.2283795 273
-0.1675393 1.7369506 1.3781183 342.5
-0.064281605 1.7608025 1.4254438 329.33334
0.032611325 1.775611 1.4509028 288
-0.064328156 1.8255974 1.4257551 309.33334
0.073428139 1.8576455 1.4099603 300
-0.040070876 1.759717 1.5102291 303.5
0.047010675 1.72109 1.5359291 306.39999
-0.0016924739 1.8198806 1.5577329 293
0.049552914 1.8611253 1.5713646 320.66669
