# .PCD v0.7 - Point Cloud Data file format
VERSION 0.7
FIELDS x y z intensity
SIZE 4 4 4 4
TYPE F F F F
COUNT 1 1 1 1
WIDTH 1
HEIGHT 92
VIEWPOINT 0 0 0 1 0 0 0
POINTS 92
DATA ascii
1.9154408 -1.8545702 0.11016183 265.5
2.2718379 -1.8441154 0.092694961 254
2.2144885 -1.7744936 0.099447042 338
2.2559729 -1.7816569 0.14363274 253
2.1986167 -1.5954947 0.098674394 269.5
2.5231938 -1.5128701 0.10512 273
2.495471 -1.4457107 0.099254064 305.42859
1.9087631 -1.8387434 0.21217397 260.75
1.9539164 -1.8403314 0.29870844 247
2.1958776 -1.7482865 0.23928705 297
2.2588487 -1.7146554 0.21097247 250.33334
2.1945736 -1.584958 0.21961212 259.39999
2.4968181 -1.5013762 0.16556717 255
2.4516649 -1.4187438 0.2159666 280.71429
2.4410377 -1.3289965 0.24414015 252
1.8955773 -1.8698742 0.36658624 251.5
1.9935083 -1.8326037 0.39565322 259
1.9657447 -1.7557956 0.33938706 336
2.1687119 -1.7382389 0.39188763 316.20001
2.2023704 -1.6133353 0.3792499 259.57144
2.2853482 -1.5667201 0.38992471 263
2.3747759 -1.4323677 0.37529343 238
2.4266417 -1.4124932 0.37360561 259
2.4263837 -1.3071122 0.37168962 274.33334
1.9259905 -1.9135952 0.54235351 265
2.0386934 -1.8538375 0.54189098 276.33334
2.1411595 -1.7107103 0.53535295 270.33334
2.2025676 -1.6068237 0.5390687 267.28574
2.2869432 -1.5475043 0.52008504 270.60001
2.3569164 -1.3915391 0.52550817 298.5
2.416322 -1.2877072 0.52298325 267.66669
1.9213651 -1.9137927 0.68468428 332
2.0044343 -1.8908768 0.67821121 332
1.9064207 -1.7380961 0.72066361 1561
2.0083735 -1.7612971 0.67413837 494
2.1485674 -1.7248595 0.66279364 284.20001
2.0452099 -1.5889992 0.71525657 612
2.1731377 -1.5660752 0.68697178 375.57144
2.2968798 -1.5790398 0.6784898 315
2.1840639 -1.4697341 0.70607579 552.33337
2.3388324 -1.4032261 0.68099189 300
2.2645016 -1.3034575 0.7075516 502
2.4394159 -1.2901402 0.66660184 261
1.8721473 -1.8617195 0.82577419 1147.6667
1.9038219 -1.723019 0.8365612 1722
2.0214381 -1.7048917 0.8176769 945
2.3623614 -1.7030373 0.79321945 275
2.0472126 -1.5691395 0.82044363 2110.3335
2.1639509 -1.5667095 0.85673761 840.33337
2.2762887 -1.6350589 0.83922786 369
2.1852486 -1.4421047 0.81343931 1427.8
2.3694315 -1.4478073 0.86033797 291
2.2216334 -1.2802558 0.84504437 3751
2.2582934 -1.3023698 0.79412508 1073
2.4554935 -1.2880039 0.82290792 286.33334
1.8834372 -1.8795124 0.98768759 448
1.9405785 -1.7492859 0.96907085 525
2.0396399 -1.7177529 0.9787454 446
2.2980785 -1.6548715 0.91091645 351
2.0715165 -1.5946459 0.95040274 496.33334
2.1727552 -1.5680864 0.98432273 490.33334
2.2837129 -1.6461537 1.0076919 409
2.1888492 -1.4535145 0.94655293 501
2.296515 -1.4277468 0.98358053 444.33334
2.2665291 -1.3125862 0.9490996 493
2.4280362 -1.2603507 0.97384799 548
1.9029652 -1.9058883 1.1270308 1281
2.1948628 -1.8156468 1.1618204 319.5
1.9420712 -1.7383072 1.093051 1369
2.0399213 -1.7138515 1.1071479 732.5
2.2885301 -1.6530602 1.1118742 327
2.0547905 -1.6086228 1.0856056 1564
2.1612875 -1.5698882 1.1004974 909
2.2758045 -1.6445881 1.1754466 351
2.1917257 -1.4682285 1.0856224 1455
2.297323 -1.4337486 1.1231071 431.80002
2.3003259 -1.3395894 1.118198 936.33337
2.4626064 -1.2711359 1.1148123 449.5
1.9412951 -1.9534111 1.2476006 170
2.0318866 -1.734064 1.2456594 381.80002
2.1610327 -1.6679564 1.2539449 391.5
2.2458084 -1.5015755 1.2025424 405
2.3041229 -1.4363778 1.2682265 338.5
1.8616338 -1.8656411 1.3964237 330.33334
1.9955722 -1.675729 1.4008043 446
2.1597402 -1.6909468 1.4060264 295
2.0599666 -1.5503888 1.4686937 327
2.1411343 -1.6177919 1.4270327 305
2.2441723 -1.4086796 1.4304124 398
2.2651582 -1.4286252 1.3818034 313
2.4136245 -1.4224532 1.42963 309
2.3057282 -1.4475881 1.5238398 295
