# .PCD v0.7 - Point Cloud Data file format
VERSION 0.7
FIELDS x y z intensity
SIZE 4 4 4 4
TYPE F F F F
COUNT 1 1 1 1
WIDTH 1
HEIGHT 74
VIEWPOINT 0 0 0 1 0 0 0
POINTS 74
DATA ascii
-0.19738083 1.5828149 0.25107166 366
-0.085637569 1.5625925 0.26840889 470.88889
-0.01834102 1.6803265 0.22538273 302
-0.33923835 1.8673106 0.2475431 308.42859
-0.25207242 1.8608476 0.26100749 345.00003
-0.09177275 1.8326399 0.27607617 308.5
-0.27140355 1.9617157 0.20145889 258
-0.17437357 1.5808886 0.36944288 349.85715
-0.07346417 1.575663 0.36766514 463.8667
-0.17933899 1.7278364 0.39971906 399
-0.03987078 1.7902701 0.3963438 441.66669
-0.24190366 1.8356121 0.36296582 337.25
-0.049971491 1.8119165 0.33670169 387
-0.16764013 1.5694169 0.51932585 400.20001
-0.077249728 1.5560471 0.52190483 504.55557
-0.21753976 1.67642 0.53830004 315
-0.025502406 1.7739263 0.51848924 468.5
-0.27832267 1.888665 0.52018422 239
-0.2951819 1.9503196 0.48434138 297
-0.2059025 1.5731219 0.6671592 445.90912
-0.084622636 1.5487494 0.67812729 496.07693
-0.23677191 1.6693343 0.61782503 361
-0.022136569 1.7329016 0.67944878 374.60001
0.016814902 1.7293199 0.73752344 401
-0.020612761 1.8744044 0.70024931 339
0.025191247 1.8659174 0.70374978 314
-0.18874475 1.5492983 0.80001366 496.66669
-0.089591727 1.5901384 0.82785547 470.47369
0.016983658 1.6473676 0.76261568 391
-0.027189717 1.7098941 0.84137267 446
0.010802438 1.7023553 0.82131183 407.66669
0.066134609 1.8984303 0.82532001 339.44446
0.21576031 1.9650038 0.82785642 271
-0.1230372 1.4925184 1.0257065 394
-0.17221391 1.556559 0.97227895 428.33334
-0.095285043 1.6042193 0.97961015 492.28574
-0.040875781 1.6933314 0.98298997 461.80002
0.011347851 1.725396 0.96618623 458.33334
-0.016054422 1.8228015 1.0022398 439
0.021076119 1.8821223 0.98445576 326
0.028242335 1.9506797 1.042429 317
-0.064828947 1.4803516 1.118019 413.36365
-0.15736362 1.552054 1.1395173 305
-0.085861251 1.5756813 1.137143 403
-0.048077911 1.714604 1.1261413 417
-0.020714134 1.8432297 1.1594108 327
0.028072372 1.9855138 1.1079757 413
-0.026803752 1.4587229 1.2292237 377
0.062366176 1.4534566 1.2643032 449.46155
-0.11956566 1.5516905 1.2280874 367
0.067941099 1.5329971 1.2955468 342.5
-0.089118928 1.6979394 1.3029361 391.66669
-0.044616021 1.8433468 1.2591374 312
0.086022787 1.4607861 1.3608272 358
-0.1080994 1.6174743 1.4607334 338.75
0.10792649 1.5614256 1.3513622 285
-0.17216492 1.6802597 1.4365208 309
-0.096502438 1.6872174 1.425229 322.58823
0.092722833 1.6978842 1.4668536 555
-0.073934883 1.8449559 1.3573464 301
-0.16274208 1.6794375 1.5216966 277
-0.095769338 1.7119277 1.5605118 305.30002
0.050467446 1.7126254 1.5571181 514
-0.083097488 1.8669423 1.585597 289
0.074564904 1.8463953 1.6137824 457
-0.082563251 1.968666 1.6327429 385
-0.050177306 1.9144012 1.725571 371
-0.064208932 2.0533891 1.7361056 311
0.1067961 2.0476437 1.7435676 310.33334
0.20695205 2.0157323 1.7279905 318.42859
0.3207016 1.9714817 1.7121363 314
-0.069123462 2.1064708 1.6974287 308
0.057436977 2.1209197 1.7268391 288.75
-0.022086591 2.0768626 1.8336066 289
