# .PCD v0.7 - Point Cloud Data file format
VERSION 0.7
FIELDS x y z intensity
SIZE 4 4 4 4
TYPE F F F F
COUNT 1 1 1 1
WIDTH 1
HEIGHT 50
VIEWPOINT 0 0 0 1 0 0 0
POINTS 50
DATA ascii
4.4251781 -2.1836743 0.11977138 304.39999
4.5117531 -2.1401291 0.044129521 295
4.1996794 -1.8608094 0.04034099 303
4.2882671 -1.8659152 0.091154128 303
4.3605723 -1.8647141 0.028892905 299
4.3469334 -1.7668589 0.088800877 294
4.3903713 -2.1873517 0.26041394 353
4.3120956 -1.8750714 0.22529709 360.66669
4.3324943 -2.1425815 0.3836197 390
4.3765278 -2.1897404 0.38440365 328
4.3171253 -1.8750854 0.37918639 371
4.3139954 -2.1606033 0.5276708 337.39999
4.3296428 -2.026948 0.52990365 345.33334
4.3627195 -2.0253546 0.46920079 278
4.348249 -1.8866789 0.46556348 356
4.373045 -1.9017906 0.5120784 342
4.1854658 -2.2249296 0.65824199 376
4.3175998 -2.1705413 0.66251612 324.66669
4.3301339 -2.0462141 0.65752625 324
4.3535719 -2.0059361 0.65702248 408
4.5451274 -1.9657673 0.66576213 281
4.3968949 -1.9178221 0.65564668 414
4.6499968 -1.9174805 0.66962713 279
4.2459002 -2.2901981 0.83570957 326.33334
4.2800045 -2.1838396 0.83113688 1017.6667
4.3634176 -2.2000773 0.76850319 295
4.2895975 -2.0388563 0.81591874 1565.8
4.3584914 -2.0008316 0.75719571 325
4.572413 -1.9706686 0.77155471 287
4.34126 -1.9002287 0.85339868 2119
4.4270606 -1.9360881 0.75892758 313
4.5438557 -1.9499407 0.87575495 404
4.2774439 -2.3202083 0.98451346 302
4.3161316 -2.1931386 0.97841507 309
4.3120251 -2.0674539 0.96816492 322
4.3826361 -1.9973807 0.97104061 305
4.4294581 -1.9455199 0.97274637 313
4.6688089 -1.9389871 1.0003922 231
4.2775488 -2.3111355 1.132974 326.66669
4.1899285 -2.126981 1.06652 2017
4.2435741 -2.1494341 1.1309249 1436
4.3311224 -2.0477829 1.1628305 842.5
4.3763304 -2.0361552 1.0836979 313
4.3476481 -1.9152145 1.1808437 2403
4.4044871 -1.9378954 1.0793537 319
4.3875918 -2.1858859 1.2919948 281.66669
4.3349004 -2.0737853 1.3089434 295
4.3204241 -2.063869 1.4214754 274
4.2717686 -2.0371115 1.5244997 192.5
4.3842487 -1.9441525 1.5380393 275
