# .PCD v0.7 - Point Cloud Data file format
VERSION 0.7
FIELDS x y z intensity
SIZE 4 4 4 4
TYPE F F F F
COUNT 1 1 1 1
WIDTH 1
HEIGHT 59
VIEWPOINT 0 0 0 1 0 0 0
POINTS 59
DATA ascii
4.283031 -0.30399898 0.027465045 298
4.3658113 -0.35549641 0.07962662 272.33334
3.891593 -0.17795545 0.080011725 208
3.9741077 -0.1820827 0.075544655 292.5
3.979991 -0.13644637 0.052031428 275
4.0883741 -0.092059478 0.067068994 263
4.3243113 -0.491474 0.22189958 368
4.3503056 -0.48955056 0.29046056 410
4.2852297 -0.38560757 0.22482869 404
3.9498882 -0.17209905 0.1763674 328
4.098515 -0.16526866 0.26129946 366.25
4.3387256 -0.29604536 0.15793756 416
4.0378542 -0.14933252 0.17223203 291
4.2435188 -0.083415262 0.22630283 265.66669
4.3145633 -0.48022509 0.36477935 398
4.3637724 -0.4809593 0.44399178 412
4.2806149 -0.39444789 0.41567367 404.66669
4.1363983 -0.16639553 0.36324626 388
4.236959 -0.1710999 0.41444093 408.66669
4.2793312 -0.095632985 0.40247673 384
4.318965 -0.47062629 0.52548325 400
4.2769456 -0.39403206 0.52307421 399
4.2634692 -0.22720632 0.52153671 375
4.2999883 -0.10298663 0.52267432 380
4.3070359 -0.46418583 0.61088431 255
4.1971898 -0.36810729 0.68964851 317
4.2842913 -0.37783203 0.65266913 261.66669
4.1784563 -0.25140697 0.68693876 327
4.2593002 -0.18964519 0.64086789 370.60001
4.2555723 -0.10864027 0.64916033 396
4.3703375 -0.57683092 0.89939046 257
4.1511626 -0.36008269 0.83572793 1244
4.2204204 -0.42697465 0.78311324 312
4.1401978 -0.22527818 0.83279991 1552.3334
4.2209663 -0.19221084 0.78053904 327
4.1840792 -0.1177361 0.86828971 1341
4.2514033 -0.13586615 0.81471032 320.33334
4.293817 -0.62600631 0.98866928 311
4.2769718 -0.55048031 0.98397422 315
4.1726675 -0.33181375 0.96315718 349
4.2269988 -0.42701742 0.97335052 337
4.1771717 -0.23718517 0.96253371 323
4.2710838 -0.20354572 0.97683692 309
4.1978045 -0.13713205 0.96484208 343
4.2743258 -0.12495503 0.97672665 299
4.2664347 -0.5493415 1.1324544 310
4.1546698 -0.36832964 1.113185 1032.4286
4.2246304 -0.42295802 1.0709522 341
4.1386681 -0.22032619 1.1167085 1001.6667
4.2497892 -0.2068769 1.0717896 319
4.1667495 -0.1303421 1.1541882 393
4.2526188 -0.13090168 1.1053652 313.66669
4.1255674 -0.37085718 1.248419 2114
4.237216 -0.38149527 1.2743962 310
4.1230264 -0.20879236 1.2444923 2557
4.2449441 -0.22697271 1.2729683 307
4.1108251 -0.13276418 1.2407647 2455
4.1954579 -0.41161117 1.367416 350
4.2323341 -0.33550325 1.4266822 327
