# .PCD v0.7 - Point Cloud Data file format
VERSION 0.7
FIELDS x y z intensity
SIZE 4 4 4 4
TYPE F F F F
COUNT 1 1 1 1
WIDTH 1
HEIGHT 58
VIEWPOINT 0 0 0 1 0 0 0
POINTS 58
DATA ascii
2.4558034 0.44300449 0.10988735 395.5
2.381032 0.50157148 0.10308844 374.5
2.4139977 0.52996683 0.12705469 435.5
2.3940864 0.60327113 0.08448866 352
2.3911421 0.44888481 0.16497284 529
2.479696 0.43011603 0.18480155 406.33334
2.611855 0.43348557 0.25762382 271
2.4828684 0.51377201 0.18442705 370.88889
2.5862827 0.50595438 0.23392229 269.39999
2.7078428 0.46506879 0.2730363 279
2.8050134 0.28230029 0.35997456 259.66669
2.6548893 0.42418075 0.36942631 265
2.7321041 0.35426748 0.39100358 267.66669
2.6432395 0.51163346 0.31609273 279
2.8164954 0.28436574 0.52882361 279.5
2.6772678 0.38531327 0.50701964 279
2.7350385 0.36079323 0.51711607 271.66666
2.6727016 0.45890054 0.50888276 294.33334
2.9067755 0.53463382 0.5831691 318.5
2.6652803 0.21804336 0.68542546 429.85715
2.768939 0.23166922 0.68309683 280.85715
2.6125188 0.37832135 0.69372928 515.66669
2.7263391 0.375664 0.65824622 315.5
2.6418481 0.46034914 0.67093539 384
2.7711043 0.49332374 0.68881273 357.66669
2.9361992 0.59713113 0.68173838 267
2.6314435 0.23609117 0.8280431 1340.4
2.7101827 0.23709813 0.82526976 1170
2.5499992 0.33396351 0.82611072 2577
2.6118784 0.38457066 0.81422406 2143
2.5700564 0.4535175 0.83507574 2373
2.7761016 0.54117239 0.84840184 516.5
2.7820735 0.63924301 0.8546856 385.5
2.639122 0.2224969 0.97578305 463.70001
2.7047589 0.29727381 0.91912365 561
2.6628098 0.36659333 0.98872119 551.66669
2.7245474 0.38593417 0.96978253 459
2.62743 0.46840143 0.93977827 504
2.7509041 0.52848971 0.97261536 398.5
2.7659116 0.62789595 0.98267674 529
2.957114 0.61402488 0.99132049 303
2.6397915 0.25125605 1.1196502 986.5
2.6421375 0.36152115 1.13546 1389.8889
2.7507844 0.42540985 1.0980768 490
2.6746073 0.48381144 1.1111454 1171
2.740278 0.51176965 1.119882 717.40002
2.7680347 0.62122262 1.116461 444
2.6616044 0.27297574 1.2213856 437
2.78669 0.2547242 1.2988765 320
2.7854538 0.36390695 1.3034081 353.5
2.7865715 0.48473558 1.2792205 484.66669
2.8191795 0.2493607 1.4720147 358.5
2.9061947 0.24684155 1.4438585 330.25
2.7949739 0.37361205 1.4207296 346
2.8667169 0.38497028 1.4016774 283.5
2.8291702 0.46123424 1.4254104 406
2.7835553 0.33582783 1.5229007 325
2.8975608 0.39476311 1.5146604 288.33334
