# .PCD v0.7 - Point Cloud Data file format
VERSION 0.7
FIELDS x y z intensity
SIZE 4 4 4 4
TYPE F F F F
COUNT 1 1 1 1
WIDTH 1
HEIGHT 69
VIEWPOINT 0 0 0 1 0 0 0
POINTS 69
DATA ascii
4.2824883 -4.6367702 0.68493664 281
4.4013653 -4.5193152 0.68020236 291
4.3650255 -4.4225602 0.67406893 293
4.5091991 -4.4185963 0.67653453 289
4.6085701 -4.2673559 0.6702376 296
4.1745291 -4.9128518 0.8326782 406
4.3353572 -4.8683848 0.83375978 289
4.2956452 -4.6577392 0.81682396 261
4.4353352 -4.7477703 0.82771891 305
4.3955998 -4.5186934 0.80970824 293
4.4008651 -4.4461956 0.8046397 269
4.5034308 -4.4182105 0.80604053 295
4.6037922 -4.2584686 0.79837316 292
4.2769589 -4.900773 0.97410923 288
4.4356203 -4.7316403 0.96542561 297
4.2742028 -4.6384587 0.94975889 279
4.3851032 -4.5126724 0.94347668 303
4.3816934 -4.410439 0.93426919 440
4.5182662 -4.4391532 0.9433701 289
4.5612745 -4.2603316 0.93019313 308
4.2732344 -4.8783855 1.116452 289
4.2914944 -4.6638408 1.0938956 265
4.4500308 -4.7313457 1.1106515 297
4.3355947 -4.4636049 1.0750744 366
4.4109564 -4.3791056 1.0709494 314.5
4.5240531 -4.2721224 1.0673156 335.5
4.5993776 -4.1770463 1.0628369 420
4.2170219 -4.9125862 1.265937 291
4.3522186 -4.8366146 1.2657913 271
4.4560432 -4.7213826 1.2589614 279
4.274003 -4.6486921 1.236128 295
4.3746128 -4.5115361 1.226604 285
4.4082508 -4.4081321 1.2165544 253
4.5110211 -4.4419484 1.2288908 293
4.5549793 -4.2980213 1.2152743 292
4.2273197 -4.9072795 1.4183954 287
4.3521514 -4.8190498 1.4162191 297
4.4588485 -4.7077112 1.409768 293
4.267066 -4.6456265 1.3833658 287
4.3842793 -4.5271335 1.3771212 293
4.4479623 -4.4074974 1.3663946 296
4.5491686 -4.2872725 1.3598478 292
4.2233329 -4.88415 1.5702626 263
4.3080578 -4.724093 1.5523541 289
4.4602823 -4.6924047 1.563473 299
4.3925052 -4.5410399 1.5317037 257
4.4070292 -4.3757939 1.5070825 271
4.5090599 -4.4497056 1.5302792 269
4.5764093 -4.3094854 1.5163479 266
4.4492316 -4.1716399 1.6295332 228
4.0617261 -4.934299 1.7203623 340
4.2297063 -4.8737783 1.7280608 301
4.3139563 -4.7245817 1.7103713 291
4.4472184 -4.6608768 1.7152507 283
4.3906798 -4.5437393 1.6870553 255
4.4836888 -4.427753 1.6784799 283
4.3949876 -4.347517 1.6527903 291
4.5901451 -4.3236833 1.6746238 283
4.1157546 -4.9856005 1.8979715 261
4.2315912 -4.8579631 1.8862643 291
4.2639656 -4.6561728 1.8491746 265
4.4123936 -4.7196331 1.8828332 292
4.3907218 -4.5484033 1.845381 285
4.4569235 -4.4006786 1.8260412 274
4.5973921 -4.3355594 1.8347268 291
4.2625194 -4.6590195 2.0089343 295
4.372498 -4.5328202 1.9984169 289
4.4569917 -4.3951759 1.982554 282
4.5744147 -4.31708 1.9859017 279
