# .PCD v0.7 - Point Cloud Data file format
VERSION 0.7
FIELDS x y z intensity
SIZE 4 4 4 4
TYPE F F F F
COUNT 1 1 1 1
WIDTH 1
HEIGHT 82
VIEWPOINT 0 0 0 1 0 0 0
POINTS 82
DATA ascii
-0.66122711 -4.1413231 0.11921665 384
-0.26105276 -4.0706229 0.079803199 708
-0.82792199 -3.9111986 0.13618489 344
-0.78519112 -3.8172507 0.061005354 336
-0.27318516 -3.8759229 0.067249596 456
-0.62872845 -3.6627586 0.11781391 362.66669
-0.49979049 -3.6670144 0.096797258 390
-0.35206211 -3.6611812 0.099184088 337.20001
-0.24135615 -3.6808305 0.091199867 418
-0.60256803 -3.5827503 0.058237374 356
-0.42106494 -3.592222 0.054583967 394
-0.79867518 -4.2313275 0.26618645 280
-0.65007406 -4.2595744 0.22401276 492
-0.8836267 -4.0841384 0.21780251 168
-0.66591644 -4.1240587 0.23782264 429
-0.51137644 -4.0838585 0.20859325 337.5
-0.37730154 -4.109653 0.22527969 319.39999
-0.25493225 -4.1179705 0.15226106 508
-0.84634888 -3.9640539 0.17414072 298
-0.68322885 -3.9443233 0.24462843 396
-0.50397718 -4.0184264 0.21408677 246
-0.37643743 -3.9652615 0.22893313 357
-0.22726497 -4.0011196 0.25589052 267
-0.61709887 -3.8517528 0.17492858 338
-0.51983368 -3.8584361 0.17234653 384
-0.27237263 -3.7972043 0.16924684 267
-0.65671277 -3.6928728 0.18382382 402
-0.3677347 -3.7186911 0.17575854 378
-0.60280794 -4.3159943 0.35608208 588
-0.66676188 -4.1006536 0.39195049 405
-0.22409496 -4.0986972 0.34461603 328.5
-0.015736222 -4.106019 0.36959004 388
0.096855968 -4.0993843 0.40059304 298
0.20581105 -4.0654759 0.3619346 254
-0.67226171 -3.9752207 0.3283549 336
-0.54709464 -4.0043573 0.35586014 330.5
-0.36796063 -3.9794459 0.36109063 353.44446
-0.20572266 -3.9639645 0.40985996 413
0.11027904 -3.9727623 0.36496809 84
-0.18786198 -3.7692547 0.43880206 272
-0.094552666 -3.8145587 0.37158972 300
-0.66609728 -4.1358643 0.46362907 288
-0.55376017 -4.0905857 0.48363531 293
-0.37230682 -4.1184287 0.47759748 338.33334
-0.22549158 -4.0603485 0.51998621 428
-0.071931362 -4.0961022 0.59458101 390
0.11450733 -4.0532093 0.58512837 241
-0.82026595 -4.0297079 0.54341441 327
-0.65679121 -4.0405741 0.46148086 418
-0.4218215 -3.9424932 0.45073164 231
-0.11485466 -3.9791207 0.51274455 374
-0.71731424 -3.8749988 0.53331089 418
-0.18635693 -3.8889613 0.5121094 422
-0.66491425 -4.2666025 0.62940156 289.33334
-0.5397824 -4.2616882 0.68198061 373
-0.33875147 -4.2303443 0.61293375 158
-0.80055451 -4.1850953 0.63129985 254
-0.66079801 -3.9741821 0.69613993 316.66669
-0.55780721 -4.0416141 0.69596338 259
0.070645809 -3.9828119 0.66387904 367
0.23519111 -4.0447874 0.66261953 314
-0.69768697 -3.8009768 0.64485067 266.5
-0.29166505 -3.7861984 0.74539566 243
-0.55713975 -4.2677789 0.80556887 674
-0.61133671 -4.0668015 0.88141084 265
-0.5661906 -4.0731215 0.78729683 257
0.24269329 -4.0622525 0.75010312 271
-0.65829027 -3.9888313 0.80709541 307.5
-0.54700541 -3.971082 0.86631334 422
-0.42138919 -3.9689665 0.7995801 290
-0.2896373 -3.9946382 0.76556897 410
-0.72128099 -3.8563268 0.81932938 282
-0.30278417 -3.850105 0.83840346 356
-0.67074245 -4.09412 0.98525488 250
-0.34569445 -4.1275363 0.96993971 303
-0.82200837 -3.998667 0.98252022 344.5
-0.66308701 -4.0150948 0.97363639 243
-0.55619609 -4.007678 0.96559942 241
-0.44665828 -4.0272641 0.96158981 313
-0.61785018 -4.1751542 1.0947812 412
-0.4686341 -4.1419101 1.0793161 287
-0.84615099 -3.8625281 1.0613173 498
