# .PCD v0.7 - Point Cloud Data file format
VERSION 0.7
FIELDS x y z intensity
SIZE 4 4 4 4
TYPE F F F F
COUNT 1 1 1 1
WIDTH 1
HEIGHT 59
VIEWPOINT 0 0 0 1 0 0 0
POINTS 59
DATA ascii
3.7485216 0.5586893 0.048253804 364
3.774658 0.58276159 0.061573915 341.66669
3.8635015 0.66093647 0.082531132 277.5
3.9065506 0.6989702 0.054889932 229.5
4.1475806 0.63146645 0.1097587 273
4.341548 0.67606187 0.097683102 472
4.2840805 0.57164133 0.29165262 392
3.9685717 0.70361435 0.22007652 361.25
4.0690022 0.73461735 0.26269227 330.5
4.2765141 0.65818322 0.22497527 389
4.0294008 0.82033676 0.17150763 402
4.127646 0.85128134 0.2730498 340
4.2921529 0.56527776 0.40394324 392
4.0553865 0.72381246 0.40238103 386
4.2591071 0.65437686 0.40424177 393.5
4.1648359 0.86363184 0.40499148 362
4.2345285 0.81544513 0.40526912 412
4.2511606 0.55893493 0.52349067 319.5
4.1596222 0.74198699 0.5219599 326.5
4.2486038 0.65197068 0.52446043 343.5
4.1433234 0.85568082 0.52305162 369
4.3223972 0.44498435 0.65642768 288
4.133985 0.57989705 0.65863597 317
4.2581644 0.53140283 0.65238059 279
4.4035935 0.48971212 0.66296715 274
4.1061211 0.68614191 0.64412546 322.66669
4.2218213 0.74065602 0.60957778 263
4.1574507 0.86442107 0.63744682 333.66669
4.2464342 0.85696959 0.70279539 273
4.244576 0.95625353 0.66034049 350.5
4.3218241 0.43478504 0.84238029 348.5
4.0455165 0.58315575 0.76719785 2455
4.1338253 0.56309909 0.82226366 861
4.2485938 0.49973714 0.88176239 332
4.3769736 0.49317858 0.80107248 289
4.0146933 0.68886727 0.79642355 3201.6667
4.0880442 0.68411684 0.8196764 359
4.1170535 0.83095932 0.85093617 294.25
4.1791248 0.92674249 0.88544452 222
4.2662649 0.95303738 0.80086267 261
4.3307195 0.42814615 0.98948371 289
4.1327362 0.5848245 0.96263397 326
4.2556963 0.50023264 0.97942978 323
4.0838656 0.68016565 0.95808733 352
4.1128058 0.81753361 0.96760786 323
4.1327057 0.54209435 1.113427 1623.0001
4.2289786 0.48803729 1.0733441 359
4.019372 0.6624831 1.137318 2663
4.0756793 0.67970216 1.0845518 371.66669
4.0196929 0.75010782 1.1413072 1325
4.0836139 0.78516674 1.0903575 320.33334
4.2333164 0.58635807 1.2800955 313
4.0426121 0.67174006 1.2402369 1659
4.230217 0.65721941 1.2824016 348.5
4.1937323 0.81317681 1.2817007 271
4.3244915 0.59456694 1.4070765 241
4.1762323 0.66043705 1.4068712 388.66669
4.2789683 0.71652985 1.4012834 297
4.2960267 0.62859201 1.5074435 430
