# .PCD v0.7 - Point Cloud Data file format
VERSION 0.7
FIELDS x y z intensity
SIZE 4 4 4 4
TYPE F F F F
COUNT 1 1 1 1
WIDTH 1
HEIGHT 61
VIEWPOINT 0 0 0 1 0 0 0
POINTS 61
DATA ascii
6.433733 5.5599465 0.03118062 253
5.8207293 5.824192 0.055395156 372
5.9579134 5.7112446 0.050531983 350
6.007143 5.7213492 0.048305541 257
5.9571853 5.6804223 0.17584321 247
6.2192574 5.6533737 0.16733465 249
6.4341631 5.5705924 0.16026843 247
5.8228431 5.8354468 0.18045337 396
6.0448484 5.7808127 0.17318049 261
5.8645287 5.9309464 0.17927054 382
6.4004645 5.5475054 0.30089816 255
5.9626641 5.6944542 0.31162444 251
6.2254481 5.6547165 0.30578092 253
6.469245 5.5862236 0.30004334 245
6.0388765 5.7568254 0.31092176 251
5.8293366 5.8509574 0.31652564 396
5.863349 5.9110389 0.31666058 350
6.3841376 5.5410004 0.45069909 251
6.2129817 5.6379919 0.4542951 247
6.4635334 5.5634766 0.45076653 235
5.9856706 5.7257032 0.45823014 263
6.0405016 5.74014 0.45819795 243
5.8446503 5.8754082 0.46336329 410
5.8805861 5.9102311 0.46401125 140
6.3850036 5.5497837 0.60938227 253
6.2318182 5.6507702 0.61213183 256
6.4921474 5.5713072 0.61105549 255
5.9671869 5.7151022 0.61295855 261
6.0663986 5.7473054 0.61484504 253
5.8721619 5.8972912 0.61983943 415
6.3567991 5.5318875 0.77520549 259
6.2113047 5.6259241 0.77689171 340.5
6.5182958 5.5765438 0.78122723 257
5.9690151 5.7245722 0.77711082 269
6.092144 5.753912 0.7812134 265
5.8680968 5.8871746 0.78411287 290
6.3539486 5.5367427 0.94962895 261
6.1694613 5.6390061 0.94954765 265
6.3025026 5.6480594 0.9550947 259
6.5110335 5.5517597 0.95670521 245
5.8963904 5.7628222 0.94842106 236.5
6.087534 5.7302918 0.95282316 257
6.2928419 5.488286 1.1235081 416
6.1643353 5.6412835 1.1291939 265
6.3248253 5.6500635 1.1384375 265
6.530405 5.550487 1.1416053 257
5.9309545 5.7007332 1.1221905 267
6.0814013 5.7050533 1.1302217 255
6.3497348 5.5471392 1.319767 265
6.5209556 5.5234652 1.3298446 251
6.6852102 5.5259705 1.3421469 280
6.1401572 5.625072 1.3126976 261
6.3204789 5.6269531 1.3254473 263
5.9270511 5.7036486 1.3061744 265
6.1117907 5.7154121 1.3197676 261
5.9208546 5.8537459 1.3211507 366
5.9330649 5.7163439 1.4978218 273
6.3141937 5.5214767 1.5079466 251
6.1143293 5.6526542 1.5055919 251
6.3176436 5.6051774 1.5177244 245
5.9420466 5.8553829 1.5151623 336
