# .PCD v0.7 - Point Cloud Data file format
VERSION 0.7
FIELDS x y z intensity
SIZE 4 4 4 4
TYPE F F F F
COUNT 1 1 1 1
WIDTH 1
HEIGHT 59
VIEWPOINT 0 0 0 1 0 0 0
POINTS 59
DATA ascii
3.5323565 -1.0556927 0.10022491 510
3.659132 -1.133355 0.093238279 387.33334
3.2401631 -0.92592752 0.056037635 319
3.3348551 -0.98166668 0.048795953 465
3.4739668 -1.0236516 0.085499004 391.5
3.2226658 -0.85318434 0.070650332 338.60001
3.3386004 -0.8053968 0.081551373 327
3.5997207 -1.0568756 0.2451278 372
3.6519446 -1.1692753 0.21572489 327.5
3.41114 -1.0051589 0.22536395 332.5
3.5807238 -1.0471998 0.19170995 382
3.2601261 -0.83204508 0.20874242 352
3.6133301 -1.071947 0.43495306 420
3.3388457 -0.95444369 0.38239336 284.25
3.5518637 -1.0470054 0.33596843 383
3.2812757 -0.87681401 0.33649623 370
3.3464124 -0.82479376 0.3857522 340.16669
3.5364864 -1.1484252 0.57822418 239
3.4076385 -0.95597804 0.53010821 254.5
3.4754477 -1.0327511 0.53545254 266
3.3996315 -0.8474347 0.52717787 246
3.6337309 -1.3196187 0.71013534 307
3.430078 -1.1158178 0.68290597 305
3.454823 -1.0846871 0.72226405 305
3.3812203 -0.96729171 0.67185664 304
3.3937783 -0.84955925 0.67663032 288.20001
3.4905133 -0.79985702 0.63861907 268
3.3868859 -0.74956185 0.70185858 319
3.5481749 -0.69934767 0.71724319 297
3.6487377 -1.2784071 0.77903384 283
3.389183 -1.081223 0.83309877 513
3.2740965 -0.93563533 0.79665655 1938.3334
3.3349283 -0.96776628 0.81914759 362
3.2579238 -0.85836619 0.84055638 3526
3.3406863 -0.83059573 0.81350249 876
3.5555687 -0.74620253 0.79879832 271
3.651701 -1.2403655 0.92114103 241
3.4288621 -1.055878 1.0430474 329
3.4590402 -1.1370918 0.97000647 337
3.2714002 -0.91082579 0.96229351 428
3.3400574 -0.9816457 0.97132158 408.20001
3.2849181 -0.83130991 0.95949191 413
3.3619747 -0.84873283 0.97535133 354
3.4420609 -1.0552901 1.1309491 323
3.5498893 -1.1726642 1.0756377 277
3.2662885 -0.95167828 1.1245762 421.5
3.336997 -0.92340845 1.0972395 391
3.2841768 -0.834297 1.1194077 416
3.2573588 -0.91514593 1.2411773 345
3.3970242 -0.93191838 1.2804285 325
3.4572027 -0.95472741 1.2120929 317
3.3790383 -0.86660814 1.3115933 384
3.5065198 -0.87457335 1.3051219 287
3.3971674 -0.94574869 1.4100196 332.5
3.4830809 -0.967457 1.4385076 283
3.4177227 -0.86160743 1.4501026 263
3.4966846 -0.86714751 1.3890207 287
3.3452606 -0.9509874 1.5200514 356
3.3455412 -0.86475396 1.5103657 339
