# .PCD v0.7 - Point Cloud Data file format
VERSION 0.7
FIELDS x y z intensity
SIZE 4 4 4 4
TYPE F F F F
COUNT 1 1 1 1
WIDTH 1
HEIGHT 81
VIEWPOINT 0 0 0 1 0 0 0
POINTS 81
DATA ascii
-0.19071129 -2.1143255 0.38299948 338
-0.1069393 -2.1335158 0.33608592 257
-0.23643862 -2.0298407 0.39063069 305.22223
-0.069223315 -2.0393698 0.40285084 313
0.020643199 -2.0039463 0.36588669 330.20001
-0.031745553 -1.9101955 0.3370645 349
-0.23662454 -2.1132555 0.55779582 343.5
-0.19802202 -2.0421026 0.52767867 308.10001
-0.085595228 -2.0190558 0.52047265 313.22223
0.035504609 -1.9845897 0.49147755 328
-0.31151977 -1.9378326 0.56877971 154
-0.23217547 -1.9126544 0.5335778 313
-0.057913423 -1.8768939 0.55735922 343.39999
0.055005826 -1.8796136 0.56357092 369
0.086519264 -2.1548972 0.67526764 329
-0.18367696 -1.9935817 0.6474669 325.5
-0.04658892 -2.0413575 0.65874815 323.66669
0.070364766 -2.0004442 0.70294946 340.60001
0.21480682 -2.0512531 0.70528746 365.60001
-0.30785722 -1.9197435 0.65774781 306.33334
-0.20647053 -1.8944588 0.68412465 325.80002
-0.084931768 -1.8587542 0.67557859 400.07693
0.02639031 -1.818521 0.66588557 445.66669
0.17733324 -1.9390959 0.70143485 330
-0.0031412244 -1.7864792 0.64011085 434
0.048265304 -1.7628136 0.70728987 503.80002
-0.012215942 -2.1056464 0.76693201 313
0.10507293 -2.1342607 0.80914992 329.39999
-0.15773629 -2.0403156 0.84374434 339
-0.055064421 -2.0343652 0.80902994 379.66669
0.090618603 -2.0068245 0.83589745 401
0.24277043 -2.0018423 0.82561064 367.39999
-0.30934051 -1.8905187 0.83723342 306.5
-0.22213969 -1.8837615 0.84378642 349.36365
-0.09076421 -1.865984 0.83179539 436.33334
0.032490179 -1.8284607 0.82913256 489
0.17630534 -1.9296143 0.82156181 445.66669
-0.020269059 -1.774067 0.81916082 546.5
0.088827573 -1.7704718 0.81063652 555
-0.019530743 -2.1408224 0.99658823 311
0.11675937 -2.1706729 0.93892658 340.5
-0.068257861 -2.0123873 0.96290731 358.33334
0.06376382 -2.0372593 0.97142804 357.80002
0.24186787 -2.0519702 0.92798418 339
-0.33076477 -1.90377 0.9865647 344
-0.22052233 -1.8656689 0.97697401 368.8667
-0.090745993 -1.8539373 0.9634406 406.5
0.046983581 -1.8760738 0.97503608 434.20001
0.17494917 -1.9255245 0.9726975 435
-0.051239714 -1.7600372 0.97019064 473.28574
-0.020269364 -2.1398363 1.0826497 360
-0.22782952 -1.9584297 1.152665 318
-0.072163887 -2.0178154 1.1021883 341
0.060040206 -2.0455618 1.113645 358
0.17162015 -1.9676373 1.1176147 405
-0.32580057 -1.9152122 1.0970513 391
-0.21935695 -1.8756957 1.1027241 362
-0.1045806 -1.8350388 1.1056144 404.20001
0.070855588 -1.902761 1.0909054 407
-0.15557116 -1.7886699 1.0546348 429
-0.034065425 -1.7660166 1.1189831 426.60001
-0.23233165 -2.0403564 1.2982723 293
-0.097256675 -1.9760865 1.3078753 290.20001
-0.17508247 -1.9053061 1.2043624 325
0.035073958 -1.8201146 1.330734 328
-0.21425217 -1.7351828 1.3448017 358
0.090198509 -1.7705402 1.3407882 354
-0.34534141 -2.0815561 1.397512 267.66669
-0.22330955 -2.0218823 1.4236939 299.33334
-0.10710438 -1.9549453 1.4023184 268.33334
-0.22782882 -1.894714 1.3982674 298.60001
-0.075682275 -1.9134371 1.4200845 299.5
0.0071956217 -1.9061573 1.3788937 342
-0.27854386 -1.7849438 1.447557 309
-0.063981809 -1.756426 1.3917282 318
-0.46735325 -2.4156168 1.5259687 311
-0.50735354 -2.2661421 1.5309159 307
-0.42306691 -2.3312922 1.5857828 295
-0.47554424 -2.1875148 1.5477281 293
-0.34534082 -2.0732296 1.5203657 277
-0.045569614 -1.8531246 1.5022724 347.5
