# .PCD v0.7 - Point Cloud Data file format
VERSION 0.7
FIELDS x y z intensity
SIZE 4 4 4 4
TYPE F F F F
COUNT 1 1 1 1
WIDTH 1
HEIGHT 58
VIEWPOINT 0 0 0 1 0 0 0
POINTS 58
DATA ascii
5.4203954 -2.6548214 1.5680295 273
5.4113626 -2.4922874 1.5488068 289
5.4800768 -2.3417029 1.5459991 345.5
5.3341613 -2.5964918 1.6916037 287
5.0564547 -2.4479315 1.756318 285
5.3187637 -2.4340401 1.6690843 299
5.0934935 -2.320029 1.7479991 269
5.187757 -2.3717613 1.7761357 261
5.312633 -2.272377 1.7925012 283
5.4212632 -2.3130949 1.6766016 277
5.3163333 -2.1171672 1.7751509 268
5.4418879 -2.009202 1.7929052 289
5.309886 -2.5854807 1.8318437 311
5.5545049 -2.3598692 1.8591019 273
5.5018888 -2.0258472 1.8089359 560
5.2903209 -2.7239196 1.9955326 233
5.3735752 -2.6001091 1.9975899 281
5.1401649 -2.4716756 2.0636189 283
5.4657531 -2.5106852 2.0078995 297
5.6206665 -2.4890232 2.0441875 304
5.2133384 -2.3590329 2.0663831 285
5.5002666 -2.3261523 1.9917529 289
5.343576 -2.1652153 2.0750861 313.33334
5.4481649 -2.1703424 1.9585378 247
5.4994164 -2.0389771 2.0289028 258
5.5752921 -2.0452898 1.9766728 277
5.513967 -1.8675003 2.0860343 239
5.6331029 -1.918671 1.9777621 261
5.5649314 -1.7647976 2.0892258 336
4.9695511 -2.746572 2.2059531 416
5.0923805 -2.6622345 2.2256103 267
5.214571 -2.6115675 2.1788726 271
5.2604032 -2.569411 2.1117313 267
5.6086564 -2.5847096 2.2092147 796
4.9832397 -2.3828506 2.1448488 259
5.1568074 -2.3705013 2.1943264 460
5.2970629 -2.3895531 2.2393286 287
4.8820205 -2.1836281 2.2150803 248
5.5261393 -2.0174711 2.1076174 265
5.3839374 -1.8359386 2.1864254 375
5.4555969 -1.7033889 2.1929264 355
5.6227145 -1.7362616 2.1030192 394
5.0494399 -2.6429629 2.3522952 446
5.1985373 -2.654104 2.2549477 800
4.8976951 -2.4827318 2.2740927 247
4.993536 -2.4408078 2.2965119 246
5.0045443 -2.3010385 2.2749245 259
5.4514103 -2.3173785 2.2745628 360
5.5464244 -2.2394917 2.2918363 249
5.4873538 -2.0466359 2.3924804 326
4.980619 -2.6092908 2.4637392 800
5.5136623 -2.3433895 2.4472237 458
5.3432007 -2.1627374 2.5048656 414
5.4682369 -2.1680131 2.4770508 332.5
5.5915284 -2.1844804 2.4477384 257
5.697155 -2.0648601 2.4653587 110
5.5340724 -2.0699437 2.5577285 247
5.5503798 -2.0001912 2.5528498 255
