# .PCD v0.7 - Point Cloud Data file format
VERSION 0.7
FIELDS x y z intensity
SIZE 4 4 4 4
TYPE F F F F
COUNT 1 1 1 1
WIDTH 1
HEIGHT 57
VIEWPOINT 0 0 0 1 0 0 0
POINTS 57
DATA ascii
4.4140372 -0.7544837 0.092877567 241
4.3920755 -0.72921604 0.058505118 319.66669
4.0274792 -0.47932017 0.071126908 369.5
4.0996499 -0.49925667 0.088190496 350.5
3.966475 -0.44799292 0.051891774 304
4.3041019 -0.70287013 0.24640475 380
4.3989887 -0.64867526 0.20471498 375
3.9938531 -0.46584594 0.23404008 409.33334
4.0877028 -0.48583841 0.23108594 413.33334
4.2765427 -0.68124795 0.40482473 391.33334
4.0403061 -0.48199439 0.400442 401
4.1040554 -0.47593126 0.40128225 412
4.2982278 -0.59496737 0.44339272 412
4.2706332 -0.68185282 0.52577102 330.33334
4.0361228 -0.48961553 0.55394971 398
4.1198416 -0.46822709 0.55798602 241
4.2676125 -0.58531439 0.5244664 410
4.1134701 -0.39832494 0.59791028 318
4.3860793 -0.75287855 0.71203077 295
4.1479607 -0.63770485 0.64592028 363.5
4.2307038 -0.67776859 0.6384033 294
4.0439801 -0.54286933 0.67908144 329
4.1178083 -0.48331279 0.68439966 325.5
4.2025852 -0.57074255 0.605636 261
4.0938501 -0.4004432 0.68121028 294
4.2743492 -0.26600626 0.69527173 277
4.2950578 -0.79016489 0.89551914 313
4.003396 -0.61521971 0.85250139 2627
4.0922527 -0.63041055 0.77327502 320
4.2783499 -0.73943144 0.84328979 317
3.9944897 -0.51212806 0.84876382 2828
4.082664 -0.50019425 0.76953119 324.33334
4.1185226 -0.38001722 0.84006226 618.5
4.2214127 -0.41808003 0.7830795 257
4.3497915 -0.22269024 0.79475617 275
4.2396808 -0.7739107 0.98524261 347
4.1033344 -0.63126016 0.95949483 322
4.2442894 -0.7393465 0.9847095 345
4.0781889 -0.52295101 0.99978721 335
4.0161734 -0.41907021 1.0333858 335
4.1049438 -0.42947143 0.95445424 319
4.2178473 -0.76428938 1.0807068 313
4.0498734 -0.6238209 1.1419278 915
4.1386704 -0.67589384 1.1229845 536.20001
4.2313209 -0.7410171 1.0821534 343
4.0131907 -0.51337582 1.1304693 890
4.044672 -0.4281399 1.1343398 325
4.1229739 -0.42418391 1.1502652 261
4.2466726 -0.75201869 1.2905154 198
4.1196108 -0.63220537 1.2560005 1088
4.0410705 -0.51328373 1.2332988 383
4.0526757 -0.52181429 1.2362697 319
4.1432495 -0.43408677 1.254161 311
4.1599088 -0.62913132 1.4182863 236.5
4.1838193 -0.53558981 1.4201577 312
4.2758427 -0.44139493 1.4411581 294
4.3353815 -0.46050256 1.5112995 291
