# .PCD v0.7 - Point Cloud Data file format
VERSION 0.7
FIELDS x y z intensity
SIZE 4 4 4 4
TYPE F F F F
COUNT 1 1 1 1
WIDTH 1
HEIGHT 135
VIEWPOINT 0 0 0 1 0 0 0
POINTS 135
DATA ascii
-0.4553239 -2.8944755 0.14506643 326
-0.43894753 -2.8818209 0.11541358 322
-0.12443376 -2.8591044 0.11175485 424
-0.35297132 -2.8393021 0.13267347 365
-0.22902495 -2.8302593 0.13113242 394.5
-0.13284913 -2.8300364 0.1436937 408
0.093851008 -2.594471 0.12918359 281
-0.010259271 -2.5467134 0.13611378 305
-0.47332534 -2.9285712 0.23822996 339.5
-0.37488589 -2.8900342 0.25499201 390.66669
-0.2342398 -2.8890066 0.24083157 326.70001
-0.11921364 -2.8693962 0.21054302 255.40001
-0.36288685 -2.8314686 0.21434096 386
-0.19639045 -2.8230259 0.23008263 309.875
-0.09384498 -2.8409317 0.24665827 257
0.06084235 -2.5737276 0.21876688 296.14288
0.1691573 -2.5785732 0.21990333 300.20001
-0.023529245 -2.5130432 0.22880283 331.80002
0.04416129 -2.5422208 0.28740084 311
-0.48226997 -2.9332776 0.38430572 400.66669
-0.36218894 -2.9011002 0.39213073 306.125
-0.2219394 -2.9038892 0.37037632 271.5
-0.3472515 -2.8428733 0.35533002 319.5
-0.18472984 -2.8425729 0.35006315 258
-0.10508086 -2.8397918 0.38006479 270.20001
0.06568937 -2.5652645 0.35027742 316.83334
0.16124654 -2.5630205 0.38320673 307
-0.027532756 -2.4819493 0.36732244 436.33334
0.039814256 -2.5447717 0.38557628 310
-0.35845158 -2.9077237 0.53363305 243
-0.22406392 -2.9059811 0.53499228 259
-0.22064722 -2.8225222 0.52986962 255.5
0.097986296 -2.5501823 0.55267614 315
0.15691906 -2.5536327 0.5506717 311
-0.033622645 -2.4979177 0.50389874 351
0.062390875 -2.5396962 0.49214467 316.20001
0.15858555 -2.5432599 0.49804035 313
-0.36906189 -2.9216726 0.68493015 276.57144
-0.21932983 -2.9036527 0.68226987 267.39999
-0.21093303 -2.8086677 0.68856192 267
0.15560901 -2.5577261 0.60550165 315
-0.038036853 -2.5064447 0.66532058 357.66669
0.066406779 -2.5233037 0.66250509 331
0.15555775 -2.524837 0.68729228 335
-0.47256026 -3.0703928 0.82887107 412
-0.50325418 -2.9691968 0.85361999 236
-0.36355698 -2.9295499 0.8305257 254.60001
-0.20547676 -2.9100645 0.82461417 271.5
-0.34080485 -2.8401327 0.85711372 257
-0.21238106 -2.7935703 0.80697322 275
-0.037589833 -2.483963 0.80982494 385
0.065411702 -2.5071182 0.8084231 350.5
0.15347135 -2.5220661 0.83814973 342.33334
-0.49940515 -2.9456527 0.9984746 419
-0.35812673 -2.9081173 0.97216606 258.60001
-0.20619619 -2.9012699 0.9668014 282
-0.32629356 -2.8272605 0.99695706 269
-0.23806135 -2.783926 0.98115939 277.66669
-0.040984273 -2.4954429 0.97045231 401.66669
0.062730551 -2.515975 0.96908516 352.66669
-0.45200059 -3.0645792 1.0575298 239
-0.43864605 -3.0352266 1.1301217 231
-0.49637082 -2.9262266 1.1494126 423
-0.36482325 -2.9198422 1.1350474 252
-0.20402692 -2.8771365 1.1109871 279
-0.31741765 -2.8132515 1.066938 273
-0.21831904 -2.7544897 1.1543589 283
-0.13307709 -2.71842 1.1013469 273
-0.041502804 -2.485585 1.1321883 384
0.078360729 -2.5239439 1.1426986 331.80002
-0.5384413 -3.0358436 1.2768501 396
-0.39152932 -3.0329289 1.2472719 289.75
-0.49557555 -2.9160228 1.3059285 412
-0.36541578 -2.9146581 1.2916737 251.5
-0.20612484 -2.8799853 1.2657225 277.5
0.086683325 -2.5739317 1.288475 305
-0.03469342 -2.4947095 1.2800254 371.33334
0.088671356 -2.5191736 1.2688358 328.5
-0.55725461 -3.0354185 1.4468031 412
-0.36149216 -3.0034556 1.3860488 300
-0.48903278 -2.9426498 1.3938102 403
-0.36708337 -2.8981903 1.4373833 314.60001
-0.21668267 -2.8664122 1.4051287 263
-0.021976292 -2.5905313 1.4068192 293
0.090175986 -2.5823863 1.4294132 298
-0.043842953 -2.5077326 1.4428364 348
0.026681215 -2.5184095 1.4077106 330
-0.5690375 -3.0095127 1.5938222 402
-0.32688621 -3.0045841 1.5196337 251
-0.48045388 -2.93782 1.5546811 406.5
-0.35300991 -2.9325619 1.5763165 275.60001
-0.23712832 -2.8728442 1.5982488 306.25
-0.36654875 -2.8381727 1.5932579 343.66669
-0.16986877 -2.8477159 1.5227534 263
-0.070595503 -2.5693188 1.5729618 289
0.11271667 -2.5902376 1.566938 322.25
-0.058193207 -2.5140786 1.5946604 299.25
0.040929992 -2.519191 1.57965 315.875
-0.51853406 -2.9274817 1.7176499 396
-0.40229246 -2.9053285 1.7452784 354.60001
-0.2860553 -2.9079766 1.7542814 314.5
-0.36220285 -2.8113308 1.7081945 389.33334
-0.20827822 -2.7916055 1.7151623 291
-0.093577638 -2.5695937 1.7686179 268
0.079523221 -2.5780098 1.7247097 303.5
-0.054795749 -2.5332899 1.7141302 306
0.052443217 -2.5030084 1.7347901 375
-0.37307486 -3.032047 1.9410378 400
-0.61867011 -2.9501493 1.8640585 396
-0.50641042 -2.9095292 1.864678 330.5
-0.33246776 -2.8685222 1.9261335 263
-0.26633337 -2.8828492 1.9238842 273
-0.48470721 -2.8440285 1.9387906 255
-0.3492659 -2.8084459 1.8628643 330.5
-0.25293332 -2.7757633 1.8876104 316
-0.1036872 -2.6005721 1.8644259 317.80002
0.045633044 -2.5969262 1.8849373 282.75
-0.1878368 -2.5214653 1.9478104 206
-0.075889722 -2.5053377 1.8845913 350.5
0.081675977 -2.5227242 1.9059972 298.66669
-0.49210125 -3.030941 1.9592736 304
-0.37655014 -3.0546095 1.9530914 349
-0.62651706 -2.997797 1.966773 263
-0.5700134 -2.9350784 1.9819539 238
-0.36878321 -2.8948927 1.9800531 297.75
-0.2583876 -2.9055662 1.9689292 313.5
-0.5107547 -2.7883859 1.9838395 240
-0.38016805 -2.762105 1.9935752 252.25
-0.22661416 -2.7389841 1.9715424 307.5
-0.34632033 -2.6388106 1.9919891 253
-0.2268607 -2.6549187 1.9944868 307
-0.069515169 -2.5542235 1.9973191 249
0.026550591 -2.5925932 1.9863071 270
-0.034709528 -2.4724286 1.961453 306
0.073276132 -2.5125802 1.9795042 304.80002
