# .PCD v0.7 - Point Cloud Data file format
VERSION 0.7
FIELDS x y z intensity
SIZE 4 4 4 4
TYPE F F F F
COUNT 1 1 1 1
WIDTH 1
HEIGHT 78
VIEWPOINT 0 0 0 1 0 0 0
POINTS 78
DATA ascii
-0.19830814 -2.4545796 0.14807147 239
-0.3605589 -2.4622247 0.23167171 289.27274
-0.21326715 -2.4750123 0.17237552 261
-0.3664273 -2.3833542 0.23225348 292.33334
-0.20487456 -2.3225341 0.23311028 296.375
-0.31713378 -2.4950519 0.33726791 288.5
-0.28956664 -2.438612 0.39601091 302
-0.35892442 -2.3667684 0.36461714 310.45456
-0.21073715 -2.317522 0.35526904 312.30002
-0.2193345 -2.3058732 0.52038366 335.13336
-0.10155245 -2.3269482 0.53191376 321.72729
-0.23566359 -2.2867882 0.66329354 341.83334
-0.1113587 -2.3453779 0.67679799 333.33334
-0.36165905 -2.2736471 0.78589743 317
-0.20311449 -2.2818525 0.8032434 362.81821
-0.13520816 -2.349721 0.8065455 336
-0.33459097 -2.2453485 0.85572642 331.66669
-0.25554439 -2.2329903 0.83676744 362
-0.16511157 -2.425139 1.0263166 315
-0.07026352 -2.4590671 0.97912747 264.625
-0.35598204 -2.273679 1.0050405 319
-0.19689789 -2.3103364 0.97284293 329.85715
-0.10054801 -2.3133333 0.9914608 329
-0.34261596 -2.2336223 0.93285072 328
-0.2541171 -2.2394309 0.94571722 331.66669
-0.1210483 -2.2054591 1.0237601 311
-0.15852374 -2.4098451 1.0863086 317
-0.04994221 -2.4508219 1.1221933 324
-0.37307918 -2.3488178 1.1233826 299.5
-0.2431393 -2.3275592 1.0979815 316.14288
-0.089276671 -2.3828912 1.1049541 315
-0.16436294 -2.1649039 1.0749114 354
-0.12086509 -2.2128403 1.0858073 306
-0.012476414 -2.8295071 1.3491459 342
0.048112169 -2.8050947 1.336579 290
-0.36268216 -2.4480433 1.2872725 280
-0.216324 -2.4612617 1.2745777 291.5
-0.099769324 -2.4675355 1.2540566 305.66669
-0.42019156 -2.3876216 1.2402241 277
-0.26002172 -2.3975759 1.2237778 285
0.084616303 -2.8650005 1.431679 253
-0.065911293 -2.7821214 1.4364897 352.44446
0.081219196 -2.7706285 1.4392656 344.28574
0.16782287 -2.7505362 1.4205592 353
-0.48971471 -2.62835 1.4531865 333
-0.33942291 -2.443043 1.4171102 304.16669
-0.22856477 -2.4340997 1.4462634 308.44446
-0.048411116 -2.7178662 1.5506688 372.75
0.050594106 -2.7787919 1.5504576 278
-0.48595318 -2.6040831 1.557431 285
-0.16378254 -2.6516082 1.6210539 319
-0.078706503 -2.673059 1.6007973 273.60001
0.11256366 -2.6516011 1.5607651 268
-0.36614844 -2.4573045 1.5824995 314.16669
-0.20260414 -2.4317579 1.5572898 307.5
-0.30568364 -2.3568974 1.5370234 314
-0.23205546 -2.3670387 1.5615153 307
0.25567052 -2.3302009 1.6273949 230.33334
0.28436756 -2.1875801 1.6286902 199
0.28952938 -2.0897031 1.6345111 174
-0.0049405992 -2.716675 1.6702931 249
-0.086205721 -2.5744619 1.6763587 226.66667
0.0088516176 -2.572381 1.6654689 236
-0.37294182 -2.4442427 1.7064186 319.125
-0.22017001 -2.4635355 1.7223643 309.60001
-0.065173358 -2.4643354 1.7370254 308
0.073220186 -2.477077 1.7059027 279.57144
0.18051577 -2.4647403 1.6723839 296.5
-0.21146968 -2.3045521 1.7445204 176.8
-0.099577583 -2.31212 1.7693735 276
0.064934433 -2.3189118 1.7496675 310.22223
0.18410288 -2.3040876 1.6875263 241.55556
-0.079133727 -2.1745579 1.7676102 211.55556
0.077949218 -2.173394 1.7395346 214.66667
0.21654673 -2.1687844 1.68107 238.44444
-0.060354128 -2.0455265 1.7442845 212.66667
0.08839386 -2.0389445 1.693594 210.8
0.1920846 -2.053854 1.6711392 191
