# .PCD v0.7 - Point Cloud Data file format
VERSION 0.7
FIELDS x y z intensity
SIZE 4 4 4 4
TYPE F F F F
COUNT 1 1 1 1
WIDTH 1
HEIGHT 108
VIEWPOINT 0 0 0 1 0 0 0
POINTS 108
DATA ascii
1.1563737 4.6268463 0.075052381 386
0.3074398 -6.6574097 0.079702169 98
0.18286753 -6.7739229 0.21522143 199
0.33954969 -6.6617665 0.21204357 190.5
0.48571163 -6.5537586 0.16207512 152
0.17594698 -6.7993217 0.36950722 224
0.34466356 -6.6610665 0.36343649 219
0.17217295 -6.7839684 0.48416746 188
0.34615886 -6.6669102 0.51635528 192
0.49922666 -6.6346798 0.59067976 194
0.83098722 -6.3565106 0.5697453 200
0.16710415 -6.7602625 0.67156172 190
0.3381913 -6.681067 0.72623992 190
0.54174602 -6.533381 0.71122706 212
0.84283996 -6.359086 0.69221771 344
0.16261436 -6.7339292 0.87220001 232
0.33533877 -6.711988 0.86455953 184
0.49228197 -6.6222401 0.85254288 278
0.38705045 -6.5957446 0.8538959 272
0.5524801 -6.5013418 0.84136027 224
0.85523713 -6.3647404 0.82208109 386
0.17593324 -6.839571 1.0253515 264
0.33203009 -6.6727829 1.0035647 208
0.87210882 -6.4157639 0.96250796 241
0.18126246 -6.8361378 1.1761706 325
0.48678115 -6.6264672 1.1407371 270
0.41149333 -6.5676198 1.1360065 394
0.57756054 -6.5089417 1.1239033 236
0.64619577 -6.5821877 1.1307727 208
0.88872683 -6.4600911 1.1099727 253
0.21956503 -6.9237113 1.3448397 239
0.15375313 -6.7681546 1.3249298 350
0.32699817 -6.7004657 1.309099 386
0.48451462 -6.634654 1.2946548 394
0.42436826 -6.5716753 1.2874721 400
0.58966231 -6.4971375 1.2719116 196
0.64279789 -6.5669398 1.2804686 362
0.73653609 -6.3787885 1.2511567 326
0.8940531 -6.3849626 1.2484965 422
0.19246382 -6.8119097 1.4917972 345
0.3244822 -6.6823211 1.4654553 402
0.48228493 -6.6386189 1.4531615 334
0.43627971 -6.5311418 1.4365854 296
0.64013851 -6.5614557 1.4359183 338
0.74975663 -6.3868361 1.4041541 412
0.90642774 -6.3819399 1.4001446 384
0.32245508 -6.7081618 1.6332432 402
0.479738 -6.6284814 1.61303 400
0.44956389 -6.541729 1.5973114 394
0.6383152 -6.5684876 1.5972883 392
0.76651919 -6.4387293 1.5695978 251
0.91960013 -6.385602 1.556677 240
0.11397187 -6.8288908 1.6640406 315
0.32009587 -6.6744833 1.793607 242
0.47740394 -6.6207795 1.7770394 358
0.63679993 -6.5788136 1.7637869 314
0.77947497 -6.4380007 1.7303624 257
0.092924938 -6.8779144 1.8462023 396
0.63644803 -6.6077585 1.9389869 261
0.47679442 -6.5666981 1.9331226 265
0.64330137 -6.524684 1.9187531 269
0.79288852 -6.4415193 1.8957825 251
0.14643918 -6.6895289 1.9742423 354
0.31839064 -6.7094069 1.972629 263
0.47627804 -6.647419 1.9526702 263
5.3437071 -1.7313297 0.068418801 266
5.3402367 -1.598316 0.069394693 264
5.7644444 -1.5914807 0.04623358 300.5
5.8701296 -1.609683 0.082864165 261
5.8283243 -1.4601343 0.08533743 368
5.3233728 -1.7355421 0.23618203 328
5.371891 -1.6023057 0.18929954 332
5.4551401 -1.6340663 0.27846742 330
5.6623282 -1.5516613 0.24328105 306.66669
5.7479229 -1.5805601 0.17735852 322
5.7392874 -1.4427195 0.17754433 200
5.394434 -1.7682215 0.37847054 294
5.4739547 -1.645564 0.37714976 336
5.5988026 -1.5329614 0.37615749 293
5.6934433 -1.4422761 0.37544453 192
5.483273 -1.8098305 0.59673017 316
5.4622049 -1.6988523 0.51943237 331.33334
5.4970779 -1.5929315 0.55502725 378
5.5807924 -1.5267072 0.48204827 301
5.5947018 -1.449561 0.55536067 328.66669
5.5414939 -1.8354733 0.71773124 285
5.6633511 -1.8525802 0.72541893 298
5.4857354 -1.6656162 0.70916438 293
5.5083413 -1.5773715 0.70795542 297
5.6339664 -1.4732734 0.71267909 277
5.6132231 -1.8462522 0.84660047 298
5.3886251 -1.5733471 0.81846017 2453
5.5153408 -1.4396596 0.82423055 487
5.6345239 -1.8522139 0.97822058 299
5.5162206 -1.686007 0.95867634 297
5.5202155 -1.6037654 0.95555902 297
5.5608792 -1.565358 0.95815122 303
5.5102005 -1.4370834 0.94787794 289
5.551475 -1.8549156 1.1018083 315
5.5328488 -1.6966122 1.0910625 287
5.5624423 -1.7930193 1.099786 657
5.4738626 -1.5589616 1.1198622 964.33337
5.5379524 -1.4335406 1.07918 311
5.5643702 -1.4608136 1.0837237 259
5.4468656 -1.8232909 1.219438 2031
5.4126611 -1.6629688 1.2046092 2305
5.437922 -1.5629392 1.202621 795
5.5833488 -1.4512179 1.2183706 299
