# .PCD v0.7 - Point Cloud Data file format
VERSION 0.7
FIELDS x y z intensity
SIZE 4 4 4 4
TYPE F F F F
COUNT 1 1 1 1
WIDTH 1
HEIGHT 96
VIEWPOINT 0 0 0 1 0 0 0
POINTS 96
DATA ascii
6.2373829 -0.827824 0.067764014 259
5.0519791 -1.3852988 0.085871175 264.5
5.2103815 -1.2744939 0.078098193 313
5.1748033 -1.148252 0.080684386 287
5.0760736 -1.0083132 0.1219238 370
5.2189684 -0.9022283 0.11548647 447
5.3642159 -0.93528157 0.03388378 313
5.2561474 -0.8789866 0.07732743 309
4.9385548 -1.3526587 0.28493229 275
4.991745 -1.3659177 0.22865909 268.33334
5.2388816 -1.2900239 0.19331041 317
5.2645817 -1.3020936 0.27964664 305
5.0377531 -1.1181016 0.24062341 266
5.2592306 -1.1632588 0.23586079 315
4.9364624 -0.96665317 0.28317177 303
5.0381575 -0.99406081 0.19950689 271
5.2068834 -0.89041406 0.23656708 1488
5.2852583 -0.89512527 0.23468772 306
4.976265 -1.3568124 0.37313133 245
4.9069529 -1.3445179 0.37287056 261
5.2401443 -1.2865056 0.3729834 166
5.2588511 -1.3059381 0.37320742 313
5.004746 -1.1180198 0.37092829 255
5.2857447 -1.159191 0.37195605 307
5.0145144 -0.97648692 0.36981052 253
5.3059349 -0.90699905 0.3701098 301
5.2444181 -0.88745552 0.36980829 1823
5.041162 -1.3729509 0.50190365 269
5.1118026 -1.4140953 0.57290167 267
5.2991428 -1.3120272 0.54350656 274.66669
5.4689817 -1.3384227 0.47694167 216
5.0604734 -1.1387806 0.51547873 273
5.3226843 -1.1240929 0.50588393 334
5.0948391 -0.98655105 0.46455079 271
5.3031454 -0.95034051 0.53784329 350.66669
5.2702074 -0.88220489 0.51873493 1882
5.2159424 -1.4496238 0.68685287 249
5.3643599 -1.4464582 0.69569075 283
5.3317032 -1.2800555 0.68949986 303.33334
5.3109283 -1.1441851 0.68508887 319
5.4531536 -1.0967411 0.69286609 273
5.3447189 -0.93019748 0.6829617 317
5.431973 -1.0415624 0.69045722 277
5.2974668 -0.87708294 0.67909271 1717
5.223527 -1.4569194 0.80104589 2255
5.3652048 -1.3972017 0.8106305 290
5.4271712 -1.2393804 0.81097317 261
5.486361 -1.1092098 0.81242645 269
5.5810585 -1.198139 0.82259297 786
5.4335885 -1.0349009 0.80621278 301
5.6038547 -0.98330075 0.81930745 798
5.4414792 -0.89537561 0.80379283 414
5.3941422 -1.5123036 0.93883467 289
5.4654179 -1.034223 0.92987943 257
5.3370094 -1.5030594 1.1206334 282
6.0767589 -3.4416406 0.81413376 386
6.3799524 -3.2169528 0.81897855 392
6.1465378 -3.4707952 0.96926868 364
6.2001152 -3.1922493 0.95656908 378
6.4201202 -3.2262971 0.97430706 376
6.0784144 -3.4184031 1.115463 398
6.2251034 -3.2117407 1.1141651 394
6.3475218 -3.1764603 1.1230631 398
6.0224423 -3.3733742 1.2643937 350
6.1583395 -3.1816001 1.2637293 388
6.3014383 -3.1406684 1.276673 376
6.0356622 -3.368973 1.4265016 328
6.1683102 -3.1927886 1.4274461 396
6.3132339 -3.1350477 1.4417076 380
6.0629296 -3.3726406 1.5959473 338
6.1864448 -3.2083561 1.5974606 374
6.3245497 -3.1290829 1.6109644 368
6.1208572 -3.3939557 1.7776221 360
6.2778244 -3.2636623 1.7896953 394
6.3735194 -3.142442 1.7930287 380
6.0969415 -3.3677824 1.9424348 386
6.2180486 -3.2368312 1.9491898 392
6.5543852 -3.0175061 1.8122894 396
6.3583035 -3.1227391 1.9630609 390
6.473352 -2.9844837 1.9700218 370
6.1030397 -3.3589361 2.1166008 402
6.2756925 -3.2738612 2.1423533 378
6.3582716 -3.11079 2.1384151 374
6.4920621 -2.9993584 2.1541951 356
6.0537114 -3.3182588 2.2739122 374
6.1861596 -3.230581 2.2923243 336
6.3458171 -3.0925119 2.3110337 388
6.4658322 -2.9925153 2.3268135 366
6.0471501 -3.3022773 2.4438183 374
6.1948395 -3.2408395 2.4726114 372
6.3197541 -3.0674214 2.4782121 378
6.4457402 -2.9885774 2.5005202 358
6.0556293 -3.2949295 2.6187201 376
6.1801429 -3.2383115 2.6442785 362
6.3169403 -3.0542119 2.6522441 352
6.4327321 -2.9880424 2.6756456 360
