# .PCD v0.7 - Point Cloud Data file format
VERSION 0.7
FIELDS x y z intensity
SIZE 4 4 4 4
TYPE F F F F
COUNT 1 1 1 1
WIDTH 1
HEIGHT 123
VIEWPOINT 0 0 0 1 0 0 0
POINTS 123
DATA ascii
5.1510549 -1.6774378 0.078873135 395
5.2119417 -1.9965308 2.6325264 272
5.3576369 -1.9106208 2.6080308 298
5.5045214 -1.8046675 2.6484754 360
5.1349506 -1.7764794 2.6304948 238
5.2658272 -1.6819022 2.669266 356
5.6566291 -1.7085935 2.6941128 308
5.771862 -1.7536615 2.5987751 204
5.6156726 -1.4897779 2.649652 220
5.1755395 -1.9693241 2.8089314 332
5.3566875 -1.9018906 2.7418151 316
5.1214566 -1.776234 2.7508686 336
5.2618313 -1.6853946 2.7965379 340
5.4981923 -1.7941635 2.7823858 338
5.6499848 -1.6981952 2.8308191 294
5.3890734 -1.5717933 2.7695584 330
5.5267196 -1.4701346 2.7481341 302
5.1570916 -1.9537419 2.9220407 332
5.323133 -1.8770149 2.9186935 313
5.1573629 -1.7485832 2.9229527 347.33334
5.4805908 -1.7798947 2.9071 322
5.6129165 -1.6783236 2.9489892 304
5.4114671 -1.5862609 2.9732208 302
5.5299807 -1.4762193 2.8833506 288
5.1546993 -1.9446878 3.038295 338
5.3084688 -1.8594102 3.0939722 318
5.0895076 -1.7788254 3.0850546 328
5.2214718 -1.6864762 3.1328676 286
5.2667718 -1.6968944 3.0441508 334
5.4842405 -1.7729803 3.0371222 316
5.6104703 -1.6694568 3.0781705 294
5.4011889 -1.5881947 3.0903354 294
5.5315685 -1.4845119 3.0756073 291
5.1730471 -1.940016 3.2125618 336
5.3199449 -1.8556564 3.2141962 310
5.0964608 -1.7862966 3.1940849 326
5.2411041 -1.698211 3.2510695 264
5.4465113 -1.7481689 3.1976326 267
5.6089401 -1.6609441 3.2026672 270
5.3733597 -1.584728 3.1909609 246
5.510149 -1.4863772 3.2440886 276
5.1639042 -1.9208516 3.4016776 336
5.2989435 -1.8361926 3.3590181 284
5.0873919 -1.7930143 3.376394 330
5.1104932 -1.7964908 3.301111 312
5.2504516 -1.7065377 3.3571253 274
5.4382029 -1.7335448 3.3599887 230
5.3755131 -1.5932395 3.3521976 217
5.5835257 -1.6412295 3.362638 163
5.5041599 -1.4900187 3.3516061 252
5.0914917 -1.8050628 3.5314567 314
5.160059 -1.9080023 3.5237684 332
5.3045077 -1.8229718 3.543462 298
5.0912046 -1.7996278 3.4602234 328
5.2264829 -1.711581 3.5527673 299
5.2534299 -1.7128092 3.4504359 290
5.4520607 -1.7266374 3.5160065 265
5.3657331 -1.6009185 3.5322294 242
5.5160336 -1.504331 3.5570269 242
5.6040668 -1.6358991 3.5342326 238
5.5157814 -1.4987435 3.4623151 222
5.0936675 -1.8169551 3.6437206 332
5.1107283 -1.8609285 3.6774158 368
5.2658205 -1.7650607 3.7088871 305
5.4525471 -1.7154592 3.6461389 314
5.3775005 -1.6129246 3.6555026 306
5.5241814 -1.5151176 3.6857781 268
5.5927029 -1.6210339 3.6643238 245
5.2502775 -1.7582344 3.7991033 288
5.4384809 -1.6962333 3.7709754 268
5.3691511 -1.634096 3.8057663 231
5.5251269 -1.5562478 3.8201318 218
5.5210123 -1.5538141 3.9218309 198
3.843348 3.8744359 0.015214205 265
3.81408 3.9169102 0.083855867 259
3.0837538 4.4577436 0.074990883 333
3.2250543 4.4190598 0.08020144 257
3.0722599 4.5220776 0.039523453 233
3.738744 3.8456562 0.24444026 312
3.76963 3.8739567 0.16231221 316
3.2266679 4.3173881 0.22114033 281
3.0645883 4.4539862 0.21292818 257.33334
3.7291021 3.8432817 0.37892276 291
3.1005416 4.3275518 0.40038413 243
3.2104883 4.2639818 0.39663625 330
3.7260861 3.8477788 0.52519202 334
3.3522801 4.1849833 0.53937709 296
3.1286409 4.3464575 0.5472666 300
3.207468 4.236712 0.54192674 330
3.7545488 3.8844697 0.63265347 328
3.7820022 3.9199202 0.74667573 289
3.3327844 4.1436706 0.64200926 322
3.09465 4.3202305 0.65083826 319
3.2170639 4.2349896 0.64648271 314
3.6814599 3.8122411 0.84835649 2285
3.2036002 4.1842747 0.86413193 1245
3.3517032 4.1465836 0.80901909 317.5
3.4941962 4.1247649 0.81162649 260
3.1223993 4.2960353 0.81515557 627
3.241329 4.2540359 0.75792718 267
3.7615347 3.9062061 0.98045099 307
3.3709617 4.1494741 0.98550105 303
3.5294721 4.1473145 0.99359739 281
3.2012229 4.2757401 0.99198425 301
3.7585838 3.9072256 1.1040798 295
3.4007976 4.1737618 1.1131158 295
3.5243025 4.1255746 1.1150169 295
3.2254686 4.2939711 1.1185021 298
3.7099414 3.8589091 1.2832273 552.5
3.5978129 3.9232132 1.3458208 273
3.6634407 3.996489 1.234943 287
3.2202055 4.1598358 1.2231143 2199
3.3556166 4.0737 1.22039 1275.5
3.5276914 4.0905581 1.2371144 284
3.1950822 4.3453684 1.2504971 305
3.6717739 3.8219624 1.4665604 271
3.4195573 4.1671486 1.3692385 332
3.2429631 4.3988981 1.3940812 259
3.3679907 4.3512444 1.3966012 269
3.2834916 4.199502 1.6259429 392
3.2136133 4.3380241 1.5134388 273
3.3342726 4.2870755 1.5156879 281
3.2273467 4.3407416 1.6503778 269
