# .PCD v0.7 - Point Cloud Data file format
VERSION 0.7
FIELDS x y z intensity
SIZE 4 4 4 4
TYPE F F F F
COUNT 1 1 1 1
WIDTH 1
HEIGHT 77
VIEWPOINT 0 0 0 1 0 0 0
POINTS 77
DATA ascii
-0.41269013 -2.4974694 0.14754233 237
2.0851684 0.32223216 0.12688804 313
2.1749861 0.32895735 0.13589758 303
2.3542492 0.3127555 0.094620496 388
2.4816055 0.34215409 0.11712351 301
1.6249665 0.29841366 0.26564857 649
1.6646209 0.29718208 0.25492015 396.5
1.6323949 0.37469673 0.23671354 590.17072
1.684177 0.333803 0.22753567 547.85718
1.8843175 0.31234115 0.2377376 318
1.9682095 0.31568369 0.22694035 314.20001
2.2257209 0.33041966 0.18139747 307
2.3264341 0.33316943 0.24481745 302.14288
2.420687 0.33762038 0.16350102 297
1.6291747 0.5228796 0.23468944 563.27277
1.6827707 0.46629286 0.17172831 287
1.6310626 0.6162833 0.24068896 555.88892
1.6563311 0.63401467 0.20832244 501
1.6457388 0.29644349 0.33787358 573.5
1.7048391 0.29417691 0.42378569 495.66669
1.6380986 0.38505036 0.34935394 619.90002
1.6621013 0.36156097 0.39023316 706.61542
1.8870072 0.30540863 0.36628753 327
2.1755235 0.31479761 0.41368282 325
2.3002157 0.32779306 0.36583894 305.33334
1.636776 0.52507865 0.36699608 623
1.6562511 0.47205979 0.39737883 677.22223
1.6375525 0.6116479 0.35480848 583.66669
1.6519966 0.62416005 0.41952324 635
1.7192649 0.29198712 0.49474511 440.66669
1.9171649 0.29864958 0.53306288 345
1.6394206 0.37124011 0.5255295 937.875
1.6720074 0.36705294 0.53083187 696.77777
1.8819304 0.30271727 0.50396419 330.33334
2.0221965 0.3153536 0.58659214 287
2.1406651 0.31404456 0.51512682 307
2.3347118 0.32373947 0.50763303 309
2.4693332 0.32199138 0.5753057 310.33334
1.636515 0.52458149 0.54043853 907.42108
1.659086 0.52331603 0.5120182 740.63641
1.6348298 0.61618888 0.49059507 728.20001
1.6568412 0.61317599 0.53789574 652
1.6874106 0.28266683 0.61269319 272
2.3841646 0.253263 0.73608637 172
2.4464974 0.20313951 0.7187475 172
2.5876832 0.22469614 0.65837598 190
1.6274828 0.35502595 0.60580724 1054
1.7214453 0.34963772 0.6220119 394
2.0234327 0.31323358 0.62958491 247
2.1336701 0.31674808 0.60110629 253
2.3207657 0.314888 0.62541699 414
1.634052 0.52808356 0.61847639 1004
1.731756 0.47311372 0.63086772 272
2.1782746 0.20737328 0.86953646 267.25
2.3123841 0.22237086 0.80009985 221.25
2.4938729 0.21864504 0.75500071 200
2.1601996 0.43342915 0.85129201 348
2.2056494 0.49471551 0.81569564 255.66667
2.2887471 0.46089432 0.83178055 152
1.7371166 0.2499126 1.0387412 346
1.8906398 0.19402656 1.0236485 319
2.0209575 0.19779076 0.96155781 286
2.118902 0.19051781 0.92601192 268.66669
1.7376964 0.34820321 1.0490806 393
2.1769683 0.44291237 1.0082679 351
2.1831632 0.48132208 0.9706381 343.28574
2.2589178 0.45804346 0.9307636 269
1.6445987 0.14793976 1.052989 1383
1.7645478 0.21317196 1.0811744 266.46667
1.8594501 0.19201632 1.051469 351
1.7473091 0.3769033 1.0951561 325.16669
1.8699639 0.3820551 1.0889177 245.5
1.9586468 0.41470155 1.0700128 164
1.723874 0.46743429 1.0829086 306.33334
1.8725126 0.47896421 1.0851705 150
2.0319815 0.46050721 1.058146 192
2.1582646 0.4756926 1.0731076 330
