# .PCD v0.7 - Point Cloud Data file format
VERSION 0.7
FIELDS x y z intensity
SIZE 4 4 4 4
TYPE F F F F
COUNT 1 1 1 1
WIDTH 1
HEIGHT 57
VIEWPOINT 0 0 0 1 0 0 0
POINTS 57
DATA ascii
1.2293001 -4.7338929 0.68906724 162
3.7104719 -6.2032528 3.244554 443
3.6673083 -6.1140575 3.3841066 322
3.7264621 -5.9587173 3.3335559 414
3.8433816 -5.941371 3.3489945 394
3.5595198 -6.0951767 3.5327561 603
3.7316062 -6.0755477 3.557375 446
3.6707435 -5.8680949 3.4591684 500
3.8846734 -5.9843163 3.5504398 241
3.7120309 -5.9796557 3.6842775 325.5
3.8611846 -5.9203072 3.690464 408
4.0276103 -5.8607607 3.702369 414
3.5077403 -5.9671326 3.799433 390
3.6653976 -5.8891344 3.7973428 387
3.8953183 -5.9517169 3.8778687 450
4.3089747 -5.9134712 3.7909842 685
4.0029707 -5.7988482 3.8349421 454
4.2438707 -5.7998214 3.8954618 428
4.4166694 -5.7406526 3.8302317 409.5
4.371563 -5.6835103 3.8784981 245
3.5584331 -6.0561461 4.0100698 424
3.4839115 -5.9296904 3.9323614 412
4.0213871 -5.8043103 4.0006075 574
4.1565628 -5.6699057 3.974257 412
3.5074053 -5.9581757 4.0994663 389
4.2704425 -5.844851 4.0844646 434
4.1388817 -5.6228147 4.0966668 492
4.044414 -5.5276251 4.1625276 170
4.1355472 -5.9577065 4.2556763 456
4.2316399 -5.7947783 4.2040911 528
5.2632384 -4.4659696 1.623359 416
5.2918696 -4.3119483 1.6050304 318
5.2070308 -4.4208307 1.777174 253
5.3246303 -4.3100662 1.9469548 380
5.2002697 -4.1922355 1.9056166 241
5.253108 -4.7168441 2.0081604 245
5.3701901 -4.5726357 2.0008123 382
5.236516 -4.4523149 1.9574604 538
5.1793509 -4.2814116 2.0867443 409
5.6050487 -4.3055177 1.9938596 472
5.6948657 -4.3627777 2.1993818 326
5.0421782 -4.24857 2.2221475 172
5.3105507 -4.2830439 2.1113656 414
5.6013103 -4.307755 2.171221 420
5.8369546 -4.2741189 2.2109261 464
5.2275209 -4.1977229 2.2494557 344
5.7264552 -4.157886 2.1683762 388
5.8897085 -4.0685058 2.1852717 410
5.2325001 -4.4586854 2.3055105 378
5.0216446 -4.2739573 2.3910394 338
5.3431616 -4.323781 2.2996078 312
5.6415854 -4.3249941 2.362488 373
5.7984476 -4.1070404 2.3537912 319
5.380506 -4.3606133 2.4911165 196
5.5255814 -4.4345078 2.5406823 376
5.587676 -4.3070679 2.5267508 366
5.5451131 -4.4354005 2.7258158 362
