# .PCD v0.7 - Point Cloud Data file format
VERSION 0.7
FIELDS x y z intensity
SIZE 4 4 4 4
TYPE F F F F
COUNT 1 1 1 1
WIDTH 1
HEIGHT 64
VIEWPOINT 0 0 0 1 0 0 0
POINTS 64
DATA ascii
0.85647368 -5.3577061 0.08115577 193
6.1013837 1.1924126 2.3528771 392
6.180686 1.1638441 2.3768189 184
5.4652066 0.81267822 2.523818 662
5.3459177 0.923244 2.483674 394
5.9274607 1.0175484 2.4329631 398
5.2389703 1.173885 2.4637651 261
5.3393617 1.051825 2.4921589 259
5.8109503 1.0759459 2.5416284 212
6.0412984 1.1285242 2.4815657 418
5.273623 0.68565279 2.5631056 874
5.299551 0.81089401 2.5831866 458.5
5.2096004 1.0298673 2.563554 249
5.4562907 0.99305201 2.6658132 271
5.7888145 0.91804564 2.6631784 360
5.3224139 1.0974215 2.6184998 249
5.3396816 1.2327411 2.6403883 360
5.5442371 1.0028138 2.8351245 231
5.8221054 1.0155036 2.8249648 638
5.2373381 1.1938603 2.8370419 350
5.3303165 1.0921761 2.7473676 284
5.8492994 1.0758276 2.7003653 412
5.4578848 0.43261954 2.996562 334
5.8096323 0.87798071 2.9450006 318
5.3580165 0.94622403 2.9840071 404
5.513659 0.98999786 2.9454381 346
5.696631 0.99807656 2.9038053 368
5.8005271 0.90550619 2.9430583 512
5.2439356 1.1949445 2.9559832 404
5.7126341 1.1402235 2.9248798 294
5.3532162 1.2153579 2.9528723 299.5
5.4118557 1.3703982 2.941889 172
5.2128291 0.41582984 3.0780852 404
5.1870975 0.53808379 3.1171596 383
5.3001337 0.53240073 3.1324155 308
5.4553757 0.55678183 3.038717 364
5.4669223 0.69238609 3.0165572 382
5.3129864 0.81313288 3.1094613 334
5.4180241 0.82658947 3.0027518 404
5.6793737 0.87514889 3.0758438 253
5.2812901 0.93288624 3.0536263 236
5.42172 1.0897311 3.0311463 442
5.257206 1.4746803 3.0024209 506
5.2122445 0.3943764 3.1703374 332
5.2624311 0.30184186 3.1948266 590
5.1978903 0.51262128 3.2113497 330
5.1516862 0.62615216 3.235152 374
5.2697258 0.68820065 3.2223461 438
5.3325186 0.81268865 3.2689347 380
5.2739205 0.92498535 3.1517248 235
5.6850934 1.0151875 3.1541543 418
5.4403634 0.44620395 3.3911297 350
5.5518599 0.68397051 3.3809283 280
5.3181772 0.80959177 3.3482208 236
5.4388475 0.40022713 3.4685462 336
5.2176819 0.57668471 3.5310807 565
5.2762041 0.49400476 3.5498943 366
5.4303646 0.51903379 3.4704685 323.66669
5.0468183 0.69964975 3.4916706 402
5.3553772 0.63994014 3.5036867 274
5.4571376 0.72513878 3.502229 412
5.0410986 0.82319826 3.5016172 366
5.235321 0.85726947 3.5339153 283
5.3626113 0.78214246 3.5211298 822
