# .PCD v0.7 - Point Cloud Data file format
VERSION 0.7
FIELDS x y z intensity
SIZE 4 4 4 4
TYPE F F F F
COUNT 1 1 1 1
WIDTH 1
HEIGHT 54
VIEWPOINT 0 0 0 1 0 0 0
POINTS 54
DATA ascii
3.4665487 -5.4052272 0.06823042 360
4.2729063 -0.62981522 0.075826392 411
3.8076046 -0.48303705 0.066521838 367
3.9423089 -0.4970755 0.12287952 354.5
4.1861086 -0.66984451 0.2487478 308.66669
4.2014384 -0.61111605 0.16393447 386
3.8941674 -0.45168191 0.23549408 412
3.942733 -0.46197504 0.22113994 400
4.1781735 -0.59756351 0.29330748 406
4.2387137 -0.59279954 0.22633104 421.33334
3.9090211 -0.44899663 0.29692858 400
4.1586165 -0.68771255 0.40315151 398
4.025352 -0.50137734 0.38808322 351.66669
4.1452208 -0.56572652 0.42082292 311.5
3.9406986 -0.44832227 0.36346906 394
4.133215 -0.68507022 0.54719281 310
4.2139554 -0.60622984 0.52245319 249
3.996742 -0.55069518 0.59239507 331
4.0965986 -0.53442985 0.51673412 339.5
4.0128198 -0.44775024 0.5123294 412
4.0811167 -0.41339588 0.56892884 341.66669
4.1439795 -0.8181057 0.6498971 281
4.1291914 -0.67253178 0.64544499 315.75
4.0281644 -0.54430002 0.67778671 323
4.1308761 -0.50657368 0.60025191 255
4.0263038 -0.439928 0.67597723 317
4.1642809 -0.38165665 0.65842772 292.66669
4.2360969 -0.31472105 0.64869797 293
4.142673 -0.79588437 0.82985657 319
3.9895866 -0.63576287 0.76242733 2643
4.092093 -0.68087554 0.81996679 355
4.2109303 -0.7395668 0.88304341 291
3.9945951 -0.54099172 0.80496728 1643.3334
3.9691868 -0.42857951 0.75602239 1743
4.1209707 -0.42711586 0.86359215 566.5
4.2307425 -0.32299018 0.82963175 287
4.1357899 -0.79360461 0.97014993 339.5
4.0790324 -0.65153205 1.0037683 343
4.0324197 -0.55545044 0.97762316 335.66669
4.0678697 -0.51650846 0.99798626 360
4.0405855 -0.42736161 0.9444139 337
4.1021023 -0.39525977 1.0004615 318
4.0323963 -0.64883941 1.1394634 1605.6667
4.0836005 -0.73365873 1.0882025 617
4.0307784 -0.52197886 1.1343418 1489
3.9927697 -0.41209382 1.1232812 1560
4.0286117 -0.60929352 1.2342402 1201
4.2618175 -0.65587711 1.2894825 273
4.0783772 -0.52793849 1.2423863 325
4.2606845 -0.55361271 1.2851195 259
4.0887098 -0.42217946 1.241258 297
4.1337814 -0.62972116 1.3601956 390
4.2502842 -0.55436403 1.4213432 273.66669
4.2884021 -0.43486768 1.3919266 308
