# .PCD v0.7 - Point Cloud Data file format
VERSION 0.7
FIELDS x y z intensity
SIZE 4 4 4 4
TYPE F F F F
COUNT 1 1 1 1
WIDTH 1
HEIGHT 122
VIEWPOINT 0 0 0 1 0 0 0
POINTS 122
DATA ascii
-0.70785248 -3.7832031 0.11062064 345.25
0.40909415 3.3438821 0.070219949 326.5
0.50568372 3.3617849 0.11943059 276
0.74601179 3.5845435 0.055305988 251
0.82765448 3.5605919 0.0980267 284.20001
0.91624749 3.5669479 0.097427398 260.33334
0.7175585 3.296232 0.29105327 303
0.54250282 3.3404222 0.20103163 322.71429
0.66781312 3.3707888 0.24437255 273.85715
0.75313133 3.4013066 0.28841084 281
0.82345152 3.5601494 0.22365074 295.80002
0.92818069 3.5311351 0.22867531 382
0.84253788 3.620384 0.28234714 297
0.94269133 3.60849 0.2287658 254
0.72449946 3.2837512 0.37988147 304.33334
0.69615948 3.3233941 0.34354156 277.5
0.82291329 3.3665745 0.39698005 311
0.84109521 3.523217 0.35889381 301
0.95048642 3.584959 0.3356058 287
0.96072507 3.6051219 0.39728639 297
0.71033424 3.2925301 0.49127245 306
0.78815609 3.2927742 0.52288401 311
0.68212748 3.3480802 0.55119336 288.66669
0.80148691 3.3270118 0.52397037 298.14288
0.68433809 3.5167677 0.53650051 272
0.95710981 3.5524259 0.46203268 332
0.77398586 3.2952759 0.66025513 315
0.68477201 3.3495479 0.70478261 306.33334
0.81541073 3.3296833 0.70756418 292.60001
0.67391127 3.453202 0.60386449 299
0.69034564 3.3787436 0.82376999 297.66669
0.82266325 3.3759823 0.82149374 291.66669
0.80567259 3.2146194 1.0095277 295
0.69337511 3.3854442 0.94714379 295.33334
0.83480304 3.3915429 0.93862212 295
0.70554531 3.2776003 1.0924714 295
0.8421073 3.2265546 1.1227955 296
1.0246507 3.1784658 1.1558533 269
0.68545479 3.3894088 1.1182907 302
0.83872712 3.3847597 1.1311142 317.33334
0.94138575 3.1152055 1.2632147 124
0.96621656 3.1896 1.2282274 319.33334
0.72161412 3.3213303 1.2320241 291
0.86993456 3.3864603 1.3401902 363.5
0.82524431 3.4748755 1.2730318 297
0.89017487 3.2719941 1.4839141 316
0.84279388 3.3833959 1.4068713 322.25
0.92020273 3.4473708 1.4514539 239
0.75613326 3.4952159 1.4172888 273
0.9556824 3.6301675 1.4121013 405
1.1377689 3.661871 1.4256737 382
0.80696809 3.4034443 1.5272911 282.5
1.4531246 3.3913069 1.5534111 358
1.1167279 3.5817552 1.5970278 306
1.3081709 3.4811032 1.5731156 210
0.84707248 3.6298835 1.605543 272
1.0835171 3.650409 1.5594169 287.20001
0.89956355 3.3573217 1.7849444 228
1.0521697 3.3207047 1.7770023 200
1.2889776 3.4272306 1.7116938 273.33334
0.68112886 3.5020673 1.7476219 424
0.93065298 3.5790648 1.7349989 279
1.1260281 3.5009758 1.7132593 214
1.3034751 3.4689717 1.6646734 320
0.903404 3.6101043 1.6972088 216
1.0672638 3.6285031 1.7095115 340
0.78184199 3.4471653 1.8192157 418
0.90361989 3.3841789 1.8858252 322
1.1404682 3.3949702 1.8133069 368
0.89803314 3.4555049 1.9174107 289
4.9969158 -0.66662645 0.10325125 345.66669
5.189219 -0.61528885 0.11745769 368
5.2559395 -0.62980473 0.041806012 291
4.9159002 -0.50233787 0.066624813 334.5
4.9647436 -0.50763202 0.060079187 257
5.4580407 -0.51667368 0.067289069 347.5
5.3598762 -0.39716658 0.10970807 326
5.4181128 -0.40789878 0.032463521 254
4.9950943 -0.67289841 0.24923842 340
5.18436 -0.60552621 0.23660327 351
5.0013061 -0.49999157 0.20048931 400
5.1230845 -0.50688893 0.27902222 348
5.3158875 -0.51373184 0.23311925 278
5.3156185 -0.3876482 0.19052525 344
5.0405788 -0.71905875 0.36819464 346
5.2186646 -0.60050935 0.36814076 318
5.1877775 -0.50822532 0.36765775 366
5.0520377 -0.69075412 0.49990836 375.20001
5.1086211 -0.71689117 0.56126487 243
5.1406083 -0.5293237 0.51113558 355.16669
5.0940609 -0.3473413 0.55753803 348
5.0604343 -0.69691128 0.66143644 302.33334
5.0934191 -0.49742246 0.66109681 269
5.1294417 -0.57143027 0.66417432 301
5.0685349 -0.37452173 0.65842283 390
5.1159139 -0.34306139 0.66121185 259
4.9433007 -0.72937268 0.86656976 2203
5.0388775 -0.69338691 0.79384291 876.5
5.1623983 -0.67454654 0.88893259 295
5.0044651 -0.49712464 0.79603291 2117.6667
5.1142769 -0.53031909 0.84411782 306.33334
5.1169906 -0.35251176 0.84220499 355
5.0685091 -0.75395107 0.99487793 299
5.0951838 -0.69005471 0.99677432 309
5.1705737 -0.68086666 1.0064138 301
5.0796347 -0.53822863 0.99153107 300
5.112319 -0.46385449 0.99454236 311
5.142817 -0.36156726 0.99713314 285
5.0523534 -0.75641096 1.1094338 313
5.0141582 -0.66822875 1.1010435 2286
5.0520287 -0.49175385 1.1028597 1356
5.1237864 -0.54637384 1.1150942 289
5.076962 -0.39620632 1.105022 266
4.9894753 -0.75138342 1.2174265 1735
5.1645846 -0.68884015 1.2467092 353.5
4.9948959 -0.52974027 1.2119511 2245
5.083549 -0.77134728 1.357599 300
5.2062163 -0.68682408 1.3795449 247
5.1794477 -0.55564457 1.3701022 281
5.2583189 -0.45931035 1.3838905 239
5.1753983 -0.79112941 1.5038562 245
5.2156343 -0.56497598 1.5048178 261
