# .PCD v0.7 - Point Cloud Data file format
VERSION 0.7
FIELDS x y z intensity
SIZE 4 4 4 4
TYPE F F F F
COUNT 1 1 1 1
WIDTH 1
HEIGHT 101
VIEWPOINT 0 0 0 1 0 0 0
POINTS 101
DATA ascii
2.1974547 -5.310811 0.29799148 400
1.2369889 5.8420072 2.3713694 614
1.2042886 5.862246 2.3777347 580
1.2420344 5.7988992 2.5129011 624
0.92551661 6.2006931 2.4922769 243
1.4104654 6.1655812 2.48596 322
1.0283508 5.7120132 2.6304862 344
1.1789478 5.7221184 2.6372731 237
0.9813441 6.145505 2.6377876 233
1.2416022 6.1064343 2.626482 398
1.4302318 6.1000443 2.6290042 332.5
1.0944753 6.1979856 2.6581252 456
0.93858361 5.4820275 2.8277369 239
0.8581562 5.6041803 2.7352457 245
1.0108182 5.5910468 2.7312322 438
1.1644892 5.6405969 2.7554862 271
0.72963369 5.8403277 2.8359213 352
1.1028483 5.7374182 2.7949255 233
0.66118014 5.8682814 2.8484697 412
1.2794827 5.9477663 2.7291265 358
1.4033054 5.9302902 2.7262177 318.5
0.74866766 6.0624971 2.769511 396
0.90234005 6.0103574 2.7482812 398
1.1459012 6.1218376 2.7950766 404
1.014369 5.6296229 2.8953857 354
1.2516632 5.6448674 2.9087956 460
0.66443026 5.7407885 2.9440539 298
0.87148702 5.7461324 2.9460993 261
1.1268551 5.8197703 2.9832673 269
0.82427335 5.89536 2.8590388 352
1.2911333 5.9430413 2.886791 448
1.4057336 5.9171476 2.8801417 282.5
0.96618629 5.6142411 3.0324876 336
0.73047984 5.8711762 3.0025325 412
0.84472167 5.8580089 3.147269 422
1.2164418 5.978817 3.0570564 412
1.0123036 5.6397519 3.1878922 440
0.68483227 5.8643842 3.1505461 426
1.1742954 5.8863645 3.1667471 369
1.0124233 5.6552224 3.3336616 320
1.160248 5.6579823 3.3398521 220
1.0026182 5.7222838 3.3685858 682
1.1608752 5.8099852 3.4192958 264
0.86173785 5.9098506 3.3209248 370
1.2031301 5.9176111 3.3322828 220
1.18821 6.0678239 3.4066544 420
1.1759803 5.8331852 3.5695229 372
1.3028989 5.6870861 3.744168 166
1.1848394 5.817513 3.6915641 322
1.3168024 5.5218983 3.8576298 404
1.3930273 5.4127955 3.7956715 374
1.300563 5.6901999 3.858741 410
1.1904283 5.7832799 3.7945497 396
1.1897383 5.8921051 3.8585241 442
1.4743265 5.4868522 3.9388173 420
1.3056605 5.6312809 3.986346 367.33334
1.2100461 5.8385873 3.9435513 330
1.5465903 5.6134567 4.1409044 204
1.4496822 5.7033858 4.0741525 472
1.6140674 5.715385 4.0968761 430
1.3447378 5.7843256 1.8878815 253
1.6395481 5.7065039 1.8731937 243
1.2139457 5.893002 1.9153732 263
1.3156337 5.4632792 2.0958893 267
1.1729831 5.6470008 1.9999424 267
1.3232009 5.6770668 2.0106456 271
1.4636118 5.6153121 1.9957047 241
1.6323484 5.6525059 2.011143 265
1.1906432 5.7065229 2.0174131 255
1.3774933 5.8509254 2.0618842 466
1.5550184 5.9527802 2.0950952 301
1.0039421 5.4960327 2.1019075 257
1.1597073 5.5079384 2.1071515 252
0.86650443 5.6289425 2.1441669 247
1.4908433 5.6003733 2.1437099 428
1.4222984 5.7996473 2.2045572 314.5
1.692266 5.8649364 2.233418 259
1.8476073 5.8889141 2.247385 241
1.7256746 6.0118504 2.1169627 200
1.5221614 5.6884871 2.3268685 410
1.5095096 5.8466592 2.3801575 408
1.8337632 5.8436828 2.3930955 265
1.6003261 5.5394506 2.4306118 267
1.4482826 5.5651369 2.4333298 267
1.8391833 5.678144 2.4939923 286
1.5552676 5.7828779 2.5173192 410
1.7099655 5.7926974 2.5281808 259
1.5055399 5.5063081 2.564014 263
1.4495699 5.578537 2.5897357 390
1.665603 5.8181839 2.6940358 444
1.6201123 5.6353517 2.7730079 120
1.737844 5.6502047 2.7866921 250
1.9018574 5.5568085 2.7602801 354
1.4772944 5.7172861 2.7994847 392
1.5678869 5.729845 2.8093753 454
1.8834037 5.5000949 2.8840034 242
1.5561483 5.6254787 2.914963 344
1.6940396 5.5839748 2.9057288 392
1.8465713 5.5736299 2.9129336 261
2.0123816 5.5810618 2.9308405 412
1.5586128 5.5849485 3.0434577 308
