# .PCD v0.7 - Point Cloud Data file format
VERSION 0.7
FIELDS x y z intensity
SIZE 4 4 4 4
TYPE F F F F
COUNT 1 1 1 1
WIDTH 1
HEIGHT 71
VIEWPOINT 0 0 0 1 0 0 0
POINTS 71
DATA ascii
-0.49037582 -8.0735741 0.048212633 219
7.4920692 4.4843054 0.12474984 180
7.6995468 4.3668795 0.11797348 390
7.5809431 4.5344634 0.12197159 422
7.435339 4.6841898 0.12682211 287.5
7.3012562 4.8278904 0.13130713 347.5
7.6762466 4.3387904 0.26359761 174
7.5412917 4.4952106 0.26751304 280
7.5736465 4.5436044 0.26743442 400
7.4477034 4.6890993 0.27117825 302
7.4004884 4.9173851 0.27448091 301
7.6965585 4.3360648 0.41907629 220
7.5727034 4.4997058 0.4224661 352
7.5741906 4.5523453 0.42350024 342
7.455514 4.6625066 0.42600322 348
7.527483 4.7662725 0.42793161 257
7.3166642 4.8679819 0.43068856 473
7.3697138 4.8312988 0.42974442 263
7.6838851 4.2784753 0.58223057 116
7.5598679 4.4767642 0.5861659 398
7.4365129 4.6347928 0.58923024 382
7.5052209 4.517487 0.58661044 234
7.2412877 4.7284322 0.58959126 338
7.3924994 4.6857381 0.59021813 258
7.722394 4.3087382 0.75808156 172
7.5823836 4.4753447 0.76015699 324
7.4489942 4.6272783 0.76223755 310
7.5206666 4.5350909 0.7606442 228
7.366662 4.6766315 0.76181376 168
7.7159152 4.3128495 0.94017065 190
7.620245 4.4830866 0.94391358 310
7.4833302 4.6336398 0.94505 274
7.5665436 4.5716071 0.94583786 222
7.6892881 4.3051066 1.1271701 258
7.4736938 4.6115899 1.1316344 176
7.6869402 4.3112831 1.3235503 328
7.4834843 4.6018457 1.327347 186
7.4543514 4.7572951 1.3369985 269
7.1764088 4.773129 3.876755 366
7.0462623 5.0191092 3.8989446 366
7.3186173 4.7493763 3.918185 314
7.2237148 4.9228568 3.9313271 392
7.1075859 4.9678059 3.9051211 402
7.0385036 5.1611786 3.9351482 392
6.8871393 5.2732782 3.9184024 354
6.9668722 5.3285551 3.9590657 346
7.1733813 4.7544265 4.0808682 352
7.2885871 4.7358832 4.116715 284
7.1053767 4.9490204 4.1108441 394
7.216188 4.9242587 4.1425176 356
7.05479 5.0320163 4.1168871 354
7.0508995 5.1528044 4.1503005 380
6.8871255 5.2551565 4.1251831 344
6.9789772 5.3448153 4.1825705 324
7.1921425 4.7508612 4.2919402 312
7.2905517 4.74404 4.3268762 280
7.1142983 4.9384561 4.3175573 356
7.0543518 5.0383806 4.3254514 310
6.9006748 5.2479677 4.3347321 348
7.220521 4.9341578 4.3553805 278
7.0566835 5.1395483 4.3568997 348
6.9631577 5.3389325 4.3853025 216
7.0346365 5.030581 4.5152559 228
6.9101095 5.2377009 4.5349169 188
7.0612688 5.1255879 4.5554848 156
6.9603658 5.3436117 4.5883651 276
6.9173403 5.2259321 4.7262931 294
7.054462 5.1033058 4.7390313 164
6.9567819 5.3478689 4.783442 226
7.058794 5.0897074 4.9193468 206
6.9075913 5.2011328 4.8960977 212
