# .PCD v0.7 - Point Cloud Data file format
VERSION 0.7
FIELDS x y z intensity
SIZE 4 4 4 4
TYPE F F F F
COUNT 1 1 1 1
WIDTH 1
HEIGHT 63
VIEWPOINT 0 0 0 1 0 0 0
POINTS 63
DATA ascii
7.240169 0.58758831 0.075328328 251.5
-0.37423107 -4.5299792 0.08895728 392
-0.47555548 -4.4376903 0.089349374 382
-0.3916811 -4.4580097 0.089502588 326.25
-0.61297965 -3.9484921 0.12986188 386
-0.57702887 -3.905375 0.066638932 292.66669
-0.67647809 -3.8683538 0.071164325 336
-0.48293257 -4.4194345 0.22319883 264
-0.38638633 -4.4427652 0.21976542 284.25
-0.64873922 -4.0635996 0.26653734 237
-0.5653038 -4.0662017 0.26411235 308
-0.64739782 -3.9754441 0.20818122 302.60001
-0.56372786 -4.010541 0.18937808 296
-0.48059937 -4.3780003 0.31715286 384
-0.37676668 -4.4069042 0.34800264 322.5
-0.47846398 -4.3012247 0.36330676 352.66669
-0.65844846 -4.0730238 0.36994562 244.33334
-0.5600841 -4.1159811 0.36666664 333.33334
-0.65672839 -4.0061469 0.32748047 245
-0.3677448 -4.3767047 0.51043844 387.33334
-0.49153137 -4.282752 0.50694549 349.20001
-0.35601744 -4.3084855 0.45526102 378
-0.66668952 -4.1157389 0.51424134 244.33334
-0.56376648 -4.1793041 0.48644075 408.66669
-0.64678264 -4.0254354 0.46081263 235
-0.3798683 -4.4018407 0.62428832 241
-0.7051568 -4.2438283 0.71863109 255
-0.53626847 -4.297483 0.66985023 255
-0.38622627 -4.2929301 0.67141312 279.80002
-0.66412675 -4.1492662 0.65152627 249.66667
-0.54389787 -4.1630526 0.66139758 260
-0.38186392 -4.3872309 0.80821264 263
-0.70022368 -4.2135301 0.80818647 241
-0.53768736 -4.2889109 0.80661857 266
-0.43092847 -4.2781973 0.84793562 259
-0.63606209 -4.1349516 0.84365553 261
-0.52653605 -4.1568141 0.84027815 259
-0.38606644 -4.3970184 0.95899963 257
-0.70350254 -4.2117906 1.0038322 235
-0.53433359 -4.2580895 0.95939869 270.60001
-0.2982972 -4.2434559 0.98380303 418
-0.66180176 -4.1699924 0.94552219 248
-0.39355883 -4.1248803 0.97227764 426
-0.56612754 -3.9061315 1.0471752 247
-0.38964716 -4.4041882 1.1176937 279
-0.65686685 -4.2644887 1.1121876 259
-0.50734222 -4.2117453 1.197879 273
-0.40271538 -4.2618704 1.1473575 280
-0.29807505 -4.3060727 1.0961084 285
-0.73575234 -4.1821089 1.1043985 394
-0.45608041 -4.1251774 1.0757557 243
-0.50487995 -3.9722683 1.1028299 307.5
-0.39067569 -4.3958626 1.2809651 262
-0.29545602 -4.3528156 1.2108034 243
-0.68806684 -4.2640524 1.257759 302.66669
-0.49554271 -4.2888699 1.284225 320
-0.61405849 -4.1908388 1.2552283 263
-0.60295999 -4.2712588 1.4368943 263
-0.49061504 -4.2966156 1.4337791 358
-0.53294992 -4.1362867 1.3991004 235.5
-0.48754683 -4.2719526 1.5406063 386
-0.69795585 -4.1558471 1.5291213 386
-0.58687103 -4.1861582 1.5266376 330
