# .PCD v0.7 - Point Cloud Data file format
VERSION 0.7
FIELDS x y z intensity
SIZE 4 4 4 4
TYPE F F F F
COUNT 1 1 1 1
WIDTH 1
HEIGHT 186
VIEWPOINT 0 0 0 1 0 0 0
POINTS 186
DATA ascii
1.2726177 -1.7004287 0.14340228 317
-0.077873155 1.471922 0.27781039 505.00003
-0.16412781 1.568363 0.25760895 393
-0.074511297 1.5202907 0.26558784 420.11111
-0.30933276 1.7537127 0.25285912 313
-0.23838399 1.7172775 0.24809556 367.53336
-0.15397784 1.4721025 0.35620654 438
-0.087209031 1.4772407 0.37055331 503.11429
-0.18016365 1.5575836 0.39658505 307
-0.031281922 1.5359845 0.34818912 448.77777
0.0021140426 1.5419228 0.40352327 425
-0.24426733 1.7196801 0.37403521 350.39999
-0.31341267 1.8211173 0.35651693 283
-0.29785928 1.8004261 0.4400087 307
-0.16510807 1.4928269 0.5349611 445
-0.082657851 1.4786297 0.52155876 526.45459
-0.18716595 1.5265148 0.54099935 389
-0.062062431 1.5297617 0.54051352 423.28574
-0.32940784 1.7145369 0.58936906 333
-0.25912917 1.7202327 0.50720096 348.33334
-0.29851785 1.8137414 0.47710088 283
-0.075777136 1.9073806 0.55265111 262.33334
-0.17376421 1.481439 0.69471854 538
-0.10179257 1.4875985 0.64995986 515.60004
-0.21664377 1.5115663 0.67616326 489.88889
-0.074328549 1.5512118 0.6971451 424.76471
-0.35103199 1.7740203 0.64116216 319
-0.070304215 1.7835124 0.70983034 355
-0.061427578 1.8179616 0.64846706 322
0.0015387833 1.9648815 0.7393713 311
-0.16684335 1.4885042 0.80231738 576
-0.21848238 1.5223675 0.81779075 425
-0.086156487 1.5692428 0.82368118 445.125
-0.051912874 1.7544188 0.79343033 327
-0.044707254 1.8465854 0.8636384 404
0.059181616 1.9157997 0.83836067 338.14288
0.063153729 1.9781941 0.83973241 285
0.17588511 1.9576577 0.87879014 285
-0.16612455 1.531889 0.98432398 500.5
-0.11387822 1.5930225 0.97246951 394.42859
-0.10436862 1.703813 0.99835396 335.80002
-0.050585024 1.8892975 0.99397916 351
0.071104392 1.9340696 0.9297843 302.33334
0.1838147 1.8725958 0.90496135 337
-0.09713459 1.994586 0.96054327 293
-0.1127479 1.4936657 1.1439456 352.33334
-0.1668188 1.5643772 1.1047146 325
-0.064388856 1.5447574 1.1521643 341.10001
0.019906461 1.5614464 1.1584022 403
-0.12714805 1.6877476 1.1348959 346.20001
-0.10878095 1.8478413 1.1209055 362.5
-0.081751615 1.9970717 1.1225771 309
-0.011668891 1.4968535 1.2035855 373
-0.032372463 1.5462767 1.2719057 328.77777
0.042442277 1.5789388 1.2159731 318
-0.18391873 1.6701093 1.3054582 338
-0.12914248 1.6975429 1.2313787 337.33334
0.05184599 1.6615065 1.2652566 277
-0.16554305 1.8001384 1.3483088 233
-0.021540662 1.5844539 1.3740234 305.33334
-0.16815785 1.7033693 1.4227716 320
-0.12046863 1.7230524 1.4449301 317.25
-0.15001288 1.6397839 1.5310141 318
-0.15852395 1.680238 1.5536376 297
-0.10785269 1.7420917 1.5634009 309.09091
-0.084102519 1.8147814 1.5687299 319.5
-0.099230722 1.8719392 1.6689148 429
-0.035067908 2.034389 1.7607985 311.28574
0.082215011 2.0376847 1.7457355 315.30771
0.22157092 2.0382233 1.733659 310.77777
0.13153467 2.1381264 1.762722 257
0.20132583 2.1425624 1.7272429 292
4.9713402 6.8615284 0.080724031 320
5.2459254 6.7965393 0.06999144 318
5.5103383 6.8266578 0.058592916 334
5.006628 6.9645367 0.078143835 358
5.256331 6.9458609 0.067968458 340
5.5930223 6.9458823 0.053874999 354
4.8603845 6.7099075 0.21336704 348
5.1414647 6.6640143 0.20410642 334
5.4276781 6.7186728 0.19488823 318
4.9298697 6.8283391 0.21133222 350
5.1518092 6.7776055 0.20398961 308
5.0550752 6.5553393 0.34372833 366
5.2987237 6.5704551 0.33848745 334
5.5342431 6.5419464 0.33284825 328
4.7808785 6.6033316 0.35076019 346
4.8664622 6.7119861 0.35050997 344
5.0756497 6.6491594 0.34472525 344
5.37076 6.6122079 0.33752191 326
5.6478286 6.6533198 0.33203125 252
4.7533412 6.5720949 0.49513334 362
5.0203738 6.5333242 0.49061403 350
5.2499514 6.5156741 0.48740608 356
5.3013482 6.5001369 0.4863686 334
5.4709268 6.4721637 0.48370528 322
5.577394 6.5442924 0.48468474 322
4.8405962 6.6505075 0.49642956 346
4.9523311 6.4318399 0.64108467 356
5.4717741 6.4366713 0.64151889 347
4.7506075 6.5361156 0.64619231 361
4.9928203 6.4888892 0.64366734 364
5.1941929 6.4511824 0.64190924 370
5.2882023 6.4608631 0.6423887 334
4.9094367 6.3808947 0.79879534 374
4.9641175 6.4263201 0.80223227 360
5.1943703 6.3879547 0.80265278 355
5.3805094 6.3760529 0.80442035 362
5.4976964 6.4021115 0.80765045 348
4.7448521 6.5199022 0.80585182 365
4.9062438 6.3841152 0.96620834 394
4.9538403 6.3889737 0.9677186 374
5.181272 6.3635263 0.97137547 380
5.3702488 6.3709221 0.97692692 364
5.4937797 6.3750424 0.98064613 360
4.738318 6.5020828 0.97192007 383
4.902513 6.3862705 1.1401975 382
4.9600706 6.3739781 1.1411086 380
5.1354947 6.3972611 1.1499637 372
5.3190336 6.3723674 1.1548374 384
5.4973454 6.3569245 1.1607256 370
4.7395191 6.4950953 1.1452036 395
4.7844329 6.4478655 1.3224641 406
4.920702 6.4183564 1.3256379 380
4.9937944 6.3959317 1.3267013 382
5.3402243 6.3911695 1.3443782 371
4.7035084 6.5380816 1.329334 390
5.1733375 6.4541135 1.3426008 354
5.3473282 6.4208312 1.5414925 346
4.817183 6.4697309 1.5135127 384
5.2331653 6.5397558 1.5494984 318
5.4803505 6.53019 1.5650038 324
5.6136637 6.4519029 1.5642624 342
4.7413292 6.6007137 1.5269772 366
4.2687769 -0.36105502 0.02802296 314
4.4017286 -0.38008282 0.095030516 271
4.2876635 -0.29466283 0.051933587 330
4.3920689 -0.26957184 0.069097504 361.5
4.2926564 -0.079384401 0.042111296 299.39999
4.393117 -0.093915284 0.096011639 269
4.3290792 -0.3847695 0.25617683 403
4.3517485 -0.39171082 0.22372828 364
4.3273277 -0.28080416 0.26746631 397.33334
4.3938708 -0.24141948 0.20779128 381.39999
4.2863197 -0.081857547 0.20870829 395.5
4.4089222 -0.082158402 0.25394022 399
4.3100047 -0.39185414 0.40323797 349.5
4.3384781 -0.2778874 0.40315264 394
4.3897715 -0.22725464 0.40384972 416
4.3014212 -0.091987267 0.40259618 313.5
4.433825 -0.072926819 0.40355712 399
4.3431468 -0.15926793 0.52466077 420
4.3993549 -0.25683141 0.52745724 309.66669
4.3210669 -0.099333026 0.52356941 231
4.4466529 -0.065792248 0.52889347 408
4.2888465 -0.30103207 0.6968106 295
4.4025688 -0.34416544 0.6616385 281
4.284956 -0.21623302 0.65123022 290
4.3893151 -0.20786598 0.61405087 426
4.2756147 -0.11902445 0.66490579 299.66669
4.4545755 -0.058581583 0.66399866 357.5
4.2338595 -0.32312271 0.81413114 833.33337
4.1676126 -0.23892109 0.77511299 2495
4.2270694 -0.21969435 0.84324467 1209
4.1455531 -0.11254458 0.86316824 3131
4.2340312 -0.12931454 0.81298411 1097.6667
4.424859 -0.048505388 0.85084391 317.5
4.3141165 -0.46150491 0.98760247 339
4.1325064 -0.34367377 0.95709145 341
4.2935772 -0.31462413 0.98171604 307
4.2599106 -0.22700648 0.97533542 322
4.2599411 -0.12643531 0.97448772 323
4.4068761 -0.46686581 1.1047541 414
4.1636825 -0.33923876 1.1077354 325
4.2522516 -0.36979949 1.1254939 305.75
4.1699858 -0.22270772 1.1229284 1855.6667
4.253828 -0.22322555 1.0727105 347
4.263557 -0.10264748 1.1338093 764.60004
4.5428033 -0.4768177 1.237635 247
4.2304554 -0.32260484 1.2713898 307
4.2912154 -0.22825354 1.2836928 316
4.2576489 -0.073374465 1.274478 351.5
4.3945141 -0.34337813 1.4165542 313
4.3030949 -0.22879088 1.390721 298
4.310833 -0.14219391 1.4438844 359
4.369473 -0.24777244 1.5150291 380
