# .PCD v0.7 - Point Cloud Data file format
VERSION 0.7
FIELDS x y z intensity
SIZE 4 4 4 4
TYPE F F F F
COUNT 1 1 1 1
WIDTH 1
HEIGHT 171
VIEWPOINT 0 0 0 1 0 0 0
POINTS 171
DATA ascii
4.4965525 -3.316988 0.13557658 267
0.12432401 1.285423 0.268659 550.33337
0.17977794 1.3120469 0.27060005 527.88892
0.21233073 1.3876737 0.27183074 396
-0.20500413 1.5995524 0.25822073 366
-0.062005904 1.6091975 0.25792265 447.16669
0.019070687 1.6298958 0.26302072 471.22223
0.22014043 1.505013 0.29084945 283
-0.072022766 1.7276626 0.27017719 283
0.037275799 1.657948 0.26264551 397
0.12160882 1.3157545 0.36747062 552.09094
0.18057482 1.3289626 0.36840925 556.16669
-0.023299277 1.4476174 0.44369805 455
0.064952306 1.3925693 0.39578786 450.20001
0.20193413 1.3707383 0.35619569 436.80002
-0.063814066 1.5916058 0.36095831 464.23077
0.0330102 1.5792775 0.37007093 470.55557
0.22746034 1.5083917 0.35506588 255
-0.21076325 1.6700274 0.33097339 327.5
-0.03515774 1.7190802 0.33743319 285
0.0026364028 1.6854191 0.33758864 335.66669
-0.0036712289 1.3398552 0.54572999 553
0.094900414 1.3201569 0.51569659 722.75
0.17593984 1.3361518 0.49853972 668.71429
-0.010112117 1.3927171 0.49942121 485.66669
0.06528344 1.3819456 0.53408736 487.30771
0.1926747 1.3799969 0.53071004 526.11115
-0.044421017 1.5765302 0.46819186 534
0.030319884 1.5663955 0.51411295 427
-0.069374479 1.3306375 0.68649489 516
0.052215543 1.329962 0.64528179 616.42859
-0.07172367 1.3959949 0.69409269 410
0.077183992 1.3863791 0.68250537 626.5
0.18604225 1.4103656 0.68721718 614.53851
-0.15223709 1.5670806 0.6361438 419
-0.066875555 1.5981989 0.62683743 394.60001
0.13886681 1.5874065 0.65996522 456.33334
0.20640735 1.5625153 0.65184402 383.33334
0.30688623 1.566321 0.6488359 184
-0.086644709 1.3429909 0.81598377 456
0.068817854 1.338431 0.7558291 773
-0.042406239 1.4082438 0.83433247 410.5
0.081360072 1.3941034 0.82548249 709.15997
0.18209505 1.4429637 0.82350338 599
-0.087831907 1.3426018 0.97014976 456.33334
-0.047043774 1.4181995 0.98323059 446.91306
0.078936651 1.4196208 0.97773844 583.92859
0.18114462 1.4596287 0.96749967 634.27277
-0.014167815 1.5066804 1.0168936 317
0.20616263 1.5327921 1.0017099 497.33334
0.22713795 1.6667821 1.0202308 365
0.30691832 1.711589 1.0115938 399.5
-0.0559103 1.3351887 1.1011643 506.33334
-0.043045294 1.3928357 1.1259819 437.57144
0.073665924 1.4243104 1.1257035 499.625
0.15052122 1.4295236 1.0787442 615
0.3445982 1.4973561 1.174549 519
0.11551881 1.5110216 1.1467261 474.33334
0.23475394 1.5566123 1.1262759 458.95456
0.36319715 1.5565356 1.1405208 461.85718
0.45931321 1.5254881 1.17255 445
0.25104696 1.6818843 1.1338646 350.5
0.30600685 1.7204659 1.1291159 301
-0.033061013 1.3242003 1.2342257 453.5
-0.050923068 1.3955396 1.2498267 381.36365
0.07700409 1.4387002 1.2557633 445.10345
0.19420658 1.4961275 1.2706308 393
-0.061987013 1.5440587 1.2890775 249
0.11099616 1.530571 1.311812 393.22223
0.21562152 1.5598401 1.2495732 419.20001
0.35374117 1.5443624 1.2232403 398.66669
0.25861496 1.6673902 1.2712519 329
0.34161758 1.6719564 1.3431509 263
0.087634429 1.4569547 1.3616322 407
0.16484356 1.4848833 1.3866112 384
0.094762437 1.5537319 1.4085622 333
0.22323108 1.5649213 1.3933189 344.66669
-2.0987775 7.3101978 0.031596959 222
-2.1020703 7.3586588 0.11837418 186
-1.887435 7.4606042 0.10966063 246
-1.7171581 7.3973465 0.049392499 225.33334
-1.8979051 7.5186315 0.017450273 116
-1.7259703 7.5620894 0.10194801 300
-2.2276058 7.2941947 0.22267799 164
-2.0719905 7.3046122 0.21845865 206
-2.0372963 7.4402666 0.21400267 234
-1.8827133 7.4239273 0.21039654 240
-1.7221354 7.4095263 0.20650394 256
-1.7313471 7.5601993 0.20274301 282
-1.5727803 7.5550323 0.19856094 308
-2.2216387 7.260334 0.3338694 206
-2.0424337 7.2946315 0.44700697 152
-1.8508053 7.2777462 0.44031641 220
-2.058495 7.421699 0.36728293 210
-1.8559465 7.4542332 0.4409014 230
-1.7310634 7.4912691 0.31615832 204
-1.7364681 7.5533628 0.39657485 243.33334
-1.5529649 7.5543985 0.37030724 301
-2.2098408 7.1961918 0.58117098 236
-2.2151194 7.2259092 0.45285416 228
-1.8404458 7.2259874 0.5669871 188
-1.8436105 7.4591656 0.57143295 230
-1.467303 7.4913955 0.55741888 312
-1.7464254 7.6051283 0.57034469 245
-1.5346886 7.5627847 0.56134975 294
-2.1994674 7.1528001 0.7173689 152
-1.8351812 7.1929927 0.70224786 262
-1.8253524 7.4443164 0.71085322 196
-1.7373999 7.5896358 0.71223795 247
-1.517738 7.5502882 0.70132542 274
-1.4770948 7.5147243 0.69829714 300
-2.1871805 7.1048269 0.85982335 220
-1.8403141 7.1965179 0.84695047 276
-1.8144083 7.456367 0.8598156 254
-1.4761989 7.4932857 0.84554017 308
-1.7335083 7.5943475 0.86339968 262
-1.5019339 7.5436029 0.84952676 304
-2.1741595 7.0556641 1.0085639 232
-1.8349574 7.1652303 0.99702656 288
-1.7952571 7.4400778 1.0151745 262
-1.4744551 7.4694862 1.0002712 260
-1.7225469 7.5734668 1.0211455 259
-1.4791923 7.5082974 1.0034262 224
-2.1831415 7.0707879 1.1696916 254
-1.8372846 7.1610041 1.1558744 276
-1.7667458 7.3904033 1.1732285 216
-1.4617865 7.496469 1.1654962 264
-2.1977079 7.1025672 1.3404598 246
-1.8592675 7.2242184 1.3302633 272
-1.8819304 7.2902737 1.5149916 260
4.7520747 -1.5439346 0.036417007 309
4.7580376 -1.3871262 0.037365794 294
4.8184867 -1.4134489 0.13263015 271
4.7557583 -1.292629 0.071919553 332.5
4.8068252 -1.3073509 0.065477997 267
4.3440251 -1.3883489 0.22175668 354
4.3936882 -1.4052842 0.22256877 373
4.7082291 -1.3864864 0.24983674 367
4.4272041 -1.4041655 0.37273043 356
4.4983907 -1.3277251 0.37195495 388
4.6899676 -1.2486281 0.37146091 318
4.526938 -1.4280962 0.50491464 400
4.4984059 -1.3366078 0.5469386 390
4.516911 -1.3380229 0.45750743 408
4.7157154 -1.2462769 0.5068897 394
4.5568676 -1.4031409 0.67930603 320
4.5755396 -1.2792493 0.74258167 336.5
4.7038889 -1.2333121 0.65019208 245
4.5934691 -1.3822401 0.81639242 366.66669
4.6739626 -1.3595065 0.85855162 241
4.7608676 -1.2882361 0.81125301 286
4.5903025 -1.1890833 0.84308231 2059
4.6500888 -1.5588858 0.97464216 255
4.5521169 -1.3888319 0.95340204 531
4.6889715 -1.3574203 0.96886694 289
4.8232899 -1.3130401 0.98359358 277
4.6065001 -1.1871759 0.95056283 313
4.5743036 -1.3966054 1.1025693 312.33334
4.6781898 -1.4200705 1.1964796 235
4.8589344 -1.4026395 1.1079223 267
4.5673394 -1.2435281 1.0559409 287
4.6619225 -1.1306669 1.0644827 265
4.6604733 -1.5413327 1.3190466 304
4.6951051 -1.3390387 1.3105744 418
4.7118793 -1.5517699 1.4499749 271
4.6924658 -1.4332854 1.4356184 249
4.7254915 -1.341455 1.4355307 279
4.6178322 -1.6582332 1.5597432 257
4.6527681 -1.5240456 1.5546017 322
4.6177969 -1.4132947 1.5357431 354
4.6951747 -1.3255675 1.5469472 384
