# .PCD v0.7 - Point Cloud Data file format
VERSION 0.7
FIELDS x y z intensity
SIZE 4 4 4 4
TYPE F F F F
COUNT 1 1 1 1
WIDTH 1
HEIGHT 66
VIEWPOINT 0 0 0 1 0 0 0
POINTS 66
DATA ascii
0.5716182 -3.1639285 0.14309871 386
3.9656694 7.1853728 0.059887834 338
4.1816201 7.1971726 0.1092539 324
4.0301881 7.2956085 0.1141943 230
4.2629123 7.3099494 0.10467529 404
4.433054 7.2396002 0.098599106 326
4.7501335 7.3395877 0.084555 290
4.5742126 7.4119668 0.09090659 251
4.890574 7.447916 0.077596575 290
4.0364823 7.3201199 0.24163514 410
4.2743044 7.3411055 0.23385786 238
4.0576372 7.3632121 0.24103072 344
4.5390663 7.3797455 0.22524461 237
4.7786536 7.3597465 0.2173485 328
4.9117398 7.493825 0.21326311 306
3.8946912 7.5858712 0.2468776 294
4.0316024 7.3222418 0.38077641 386
4.2495632 7.3087707 0.37509817 420
4.7802587 7.3353066 0.36261973 262
4.0701613 7.3575006 0.38040966 404
4.306293 7.3689437 0.3747111 243
4.548171 7.387064 0.36907732 328.5
3.8868239 7.537024 0.38816872 384
4.9167581 7.5131249 0.36227661 306
4.0799389 7.3457942 0.53000718 422
4.2783737 7.3302503 0.52623141 329.5
4.7992444 7.3334322 0.51840842 252
4.0440931 7.3575063 0.53100199 380
4.5419807 7.3672485 0.52330613 415
3.8996768 7.5307798 0.53931785 344
4.073267 7.3020101 0.6867671 400
4.278029 7.3196812 0.68613827 331.5
4.5306158 7.3381357 0.68546665 419
4.7949538 7.3362851 0.68405592 368
3.8957272 7.4892411 0.69778389 370
4.0503592 7.3801141 0.69088387 390
4.1062627 7.3337755 0.85605216 430
4.2705889 7.295238 0.85380208 323.5
4.5619154 7.320507 0.85659778 408
3.9043241 7.473165 0.86553061 356
4.0615468 7.4118142 0.86133456 372
4.5124865 7.358357 0.85889316 235
4.8098798 7.3698297 0.8612138 412
4.1242256 7.3361449 1.0320206 424
4.2873297 7.31497 1.0321935 239
4.5917864 7.341588 1.0388044 237
4.0592656 7.4166775 1.0383372 310
4.5177279 7.3764105 1.0406388 231
4.8117847 7.3818078 1.0457944 241
4.1329055 7.3204012 1.2133502 239
4.2897239 7.3079228 1.2156065 240
4.6043959 7.33283 1.2261202 241
4.5020151 7.3576307 1.2260166 231
4.8119655 7.3905826 1.2378266 255
4.142292 7.3055859 1.4016639 241
4.2257428 7.3208451 1.4063501 249
4.360939 7.2843256 1.4064369 243
4.6323824 7.3495469 1.4246057 253
4.7816238 7.3492403 1.4304618 247
4.5181966 7.3938842 1.4257919 257
4.1642962 7.314199 1.5995421 249
4.2097955 7.2990251 1.5993139 251
4.4001808 7.3223829 1.6114738 261
4.6431413 7.3368449 1.6254736 257
4.5165405 7.3987265 1.6281306 261
4.7902503 7.3709621 1.6379511 257
