# .PCD v0.7 - Point Cloud Data file format
VERSION 0.7
FIELDS x y z intensity
SIZE 4 4 4 4
TYPE F F F F
COUNT 1 1 1 1
WIDTH 1
HEIGHT 89
VIEWPOINT 0 0 0 1 0 0 0
POINTS 89
DATA ascii
-0.80495727 -4.2138524 0.084926888 299
5.4588881 0.97976655 0.078650407 302.66669
5.5587273 0.99220335 0.021707028 271
5.1554251 1.1745514 0.11772661 198
5.1772466 1.2121046 0.043684274 200
5.3682909 0.94970739 0.232868 353
5.4622374 0.98834383 0.23074691 355
5.1637216 1.1955165 0.19563659 286
5.397696 1.1006318 0.27671933 202
5.4412956 1.0999537 0.23152187 340
5.2892675 1.2122065 0.19166856 410
5.3720179 0.94039369 0.37051779 342
5.4729552 0.99880636 0.3711991 340
5.38098 1.0901793 0.37163433 346
5.4982324 1.1204946 0.37217218 324
5.4593606 0.85961151 0.5776614 148
5.3786325 0.93153828 0.52250981 367
5.4167867 0.99625176 0.52468878 305.5
5.3807015 1.1061314 0.57795715 388
5.4563894 1.1028774 0.50935924 336
5.4298592 1.2320993 0.58211923 228
5.4969292 0.82757968 0.69079047 291
5.5746365 0.88433963 0.69655716 277
5.3733492 0.95836353 0.68526375 346.5
5.3848782 1.0913613 0.68853873 350.5
5.4202752 1.2711123 0.69466889 354
5.5964522 1.2644641 0.70530069 255
5.4598417 0.81496638 0.80376589 241
5.5630198 0.88799113 0.81388307 269
5.2784128 0.98262841 0.79200721 2857
5.4029121 0.91898394 0.80104053 311
5.3318076 1.0788965 0.79879731 1100
5.5000877 1.2342848 0.81686032 247
5.3321376 0.84707487 0.99161404 829.33337
5.4121923 0.86809158 0.91990578 301
5.362731 1.0014775 0.99170321 733.79999
5.3858023 1.125788 0.98572046 306
5.4726868 1.2205217 0.93630505 313
5.3694277 0.88205755 1.1621478 311
5.3202291 1.0179193 1.1593997 1315
5.3263426 1.1465114 1.1654947 1285
5.4760766 1.2140085 1.0623192 309
5.2420053 0.86371523 1.2664043 1785
5.2372198 1.0054235 1.2712232 2441
5.4418373 1.0360028 1.3087085 305
5.4624834 1.1962252 1.3196466 263
5.3995094 1.0312449 1.4327366 285
5.4078593 1.0344156 1.4345703 245
5.405973 1.0255089 1.5674731 245
7.6431093 3.8862295 3.4025161 308
7.5886178 3.9864821 3.4043696 356
7.3439546 4.1818247 3.3672879 370
7.4501824 4.1592064 3.3953083 384
7.5928516 4.1208086 3.4317656 348
7.5262465 3.8313584 3.567791 360
7.4606705 3.97737 3.5755248 335
7.2716703 4.1455998 3.5485413 354
7.4009676 4.115603 3.5846307 368
7.4936857 3.6504848 3.7271628 378
7.4438429 3.8364592 3.7480669 331
7.2235994 4.1236606 3.7338707 372
7.6698499 3.6685154 3.7951152 286
7.4338255 4.0446773 3.7899241 358
7.3845162 4.0911484 3.7829261 346
7.1828952 4.1060839 3.9167311 314
7.189559 4.2211647 3.9476247 322
7.1466131 4.1800966 4.1182861 248
7.0970592 4.1353817 4.2756734 288
6.9701829 4.2520485 4.2566161 223
6.887989 4.1890821 4.3835983 220
7.0582457 4.0975647 4.4295311 266
7.0521903 4.0798359 4.5923157 270
6.8862596 4.2087188 4.5576124 172
7.0321703 4.0540166 4.7357144 234
6.8505592 3.9375529 4.893363 276
6.9780426 4.0167322 4.8475952 202
6.7565598 4.1477671 4.9171515 248
6.7007504 3.9980259 5.0093098 260
6.8692541 3.9752138 5.0354896 130
6.9465551 3.9635289 5.0709763 192
6.6427059 4.1427822 5.0310984 252
6.6498756 4.2213349 5.0108237 238
6.7144432 4.3686295 5.0957513 144
6.6932507 3.9636159 5.2043052 268
6.8481379 3.9355588 5.1603155 204
6.5618267 4.1263723 5.1946435 210
6.7192497 4.1479688 5.212914 258
6.7606745 3.9623713 5.3498964 214
6.5886993 4.1006427 5.3081336 238
