# .PCD v0.7 - Point Cloud Data file format
VERSION 0.7
FIELDS x y z intensity
SIZE 4 4 4 4
TYPE F F F F
COUNT 1 1 1 1
WIDTH 1
HEIGHT 136
VIEWPOINT 0 0 0 1 0 0 0
POINTS 136
DATA ascii
-0.37850323 -2.498492 0.14703125 332
-0.19599253 -2.4590697 0.14764512 241
-0.13623697 -2.4664483 0.14587335 267
-0.33603507 -2.57516 0.2485446 256
-0.37076119 -2.4569869 0.22638659 276.81818
-0.20733455 -2.4609158 0.17332521 251
-0.073453702 -2.4478745 0.21730196 305.20001
-0.36230171 -2.3863807 0.25754476 294
-0.20380202 -2.3382957 0.23216887 285.875
-0.099177279 -2.3041792 0.25675246 321
-0.34963116 -2.4487038 0.33908775 299.44446
-0.28189325 -2.4346175 0.38995084 338
-0.035650939 -2.4368083 0.32811907 412
-0.3613947 -2.361846 0.39153123 314
-0.20244631 -2.3249261 0.34869808 308
-0.10543817 -2.3210285 0.36953872 322.66669
-0.074239641 -2.4174545 0.54978287 297
-0.35430509 -2.3481715 0.50983787 315.44446
-0.22098736 -2.3305998 0.52195901 331.66669
-0.1082072 -2.3327904 0.51524615 320.85715
-0.078741387 -2.4273748 0.65781415 313
-0.3646526 -2.3477697 0.65780634 316.14288
-0.23160994 -2.3019249 0.67100263 340.63638
-0.1207064 -2.348762 0.67215532 333.80002
-0.11091562 -2.4595597 0.82813227 313
-0.35883957 -2.2876911 0.82680857 323.66669
-0.21562628 -2.2939606 0.81317103 355.125
-0.14927734 -2.3395641 0.84983826 338
-0.059372365 -2.5644269 0.98780644 287
0.006295085 -2.5706081 0.98510242 290
-0.1647398 -2.4345288 1.0287637 304
-0.083571568 -2.4834399 0.98317999 304.60001
0.024820775 -2.507761 1.0343554 386
-0.372646 -2.3106327 1.003908 310.60001
-0.22652084 -2.3074834 0.96686065 324.55557
-0.14933547 -2.3335311 0.9391005 351
-0.31301019 -2.2384682 0.93102014 333
-0.12498109 -2.5932202 1.0675426 289
0.012314707 -2.5656145 1.0505743 267
-0.60288846 -2.5031602 1.0924711 299
-0.5381186 -2.4753666 1.1230922 291
-0.38384643 -2.4254069 1.1807692 288
-0.20835528 -2.4300551 1.1629596 304
-0.1026163 -2.4683232 1.1316175 350
0.031632334 -2.4312127 1.0778642 374
-0.38305223 -2.3766961 1.1217258 299
-0.23523314 -2.3673894 1.0999153 313.28574
-0.045018509 -2.380219 1.1110288 310
-0.059899926 -2.2042453 1.166955 358.5
-0.5239867 -2.553381 1.3097456 263
-0.22444879 -2.5533991 1.3426456 280
-0.60382128 -2.5387497 1.2444756 293
-0.48104149 -2.4824321 1.2451727 288
-0.35948059 -2.4944844 1.2914655 277.33334
-0.23169711 -2.4810028 1.2606664 294.33334
-0.11438063 -2.4878979 1.2396719 305
-0.39178452 -2.1592195 1.2816981 317
-0.2117196 -2.8558655 1.4526242 498
-0.081945211 -2.9067473 1.4596018 355.5
0.068067282 -2.9156442 1.4517829 544.5
-0.56530082 -2.705653 1.4422177 416
-0.071942478 -2.8469584 1.3597046 351
0.073716857 -2.8268666 1.4941854 669.5
0.17133673 -2.830631 1.4895626 196
-0.24020314 -2.5893321 1.427881 274
-0.36106315 -2.4664302 1.4145221 301.42859
-0.27378467 -2.4622595 1.4381803 291.33334
-0.37142929 -2.355793 1.4838748 314
-0.40535834 -2.2195988 1.3690333 289
-0.20704041 -2.8987343 1.5780846 312
-0.096134707 -2.8977764 1.561321 289
0.05332119 -2.9046931 1.565392 281.75
-0.21483389 -2.7831974 1.5953958 302.5
-0.057435594 -2.8164544 1.574777 525.14288
0.10853987 -2.7919683 1.5956585 266.39999
0.18553174 -2.7476714 1.6004267 176
-0.49819633 -2.6395285 1.5731733 296.25
-0.24600771 -2.6765666 1.607669 406
0.23632497 -2.6913753 1.6415563 277
0.32575977 -2.6623356 1.6240348 268
-0.50290608 -2.4793427 1.6273673 296
-0.36521357 -2.447969 1.5455949 274.66669
-0.2523818 -2.4488521 1.5072966 254
0.33142015 -2.4623461 1.6497325 98
-0.32593745 -2.354651 1.5392251 317
-0.24971569 -2.3669906 1.5333909 306
-0.089938819 -2.8679008 1.6758919 257
0.023207262 -2.8733869 1.6683255 249
-0.23547755 -2.7748523 1.6857555 240.5
-0.056350224 -2.7704589 1.7000031 326.66669
0.10654633 -2.7234025 1.664628 236
0.20072517 -2.7273903 1.7064071 316.33334
-0.36624289 -2.5818868 1.7404115 378.66669
-0.25003627 -2.6261189 1.7218828 282.39999
-0.039885812 -2.658778 1.7297301 211
0.098257698 -2.6139066 1.7553879 321.33334
0.24681988 -2.6250858 1.7133557 297.60001
0.34513533 -2.6045923 1.6612371 172
-0.49775499 -2.4622366 1.7156326 313.25
-0.37810683 -2.4887078 1.7685776 267
-0.22830793 -2.5182757 1.7898178 245
-0.12303084 -2.5492697 1.7917961 178
0.12279274 -2.5049026 1.779243 164.66667
0.24806821 -2.4709463 1.7693032 207.75
0.33844668 -2.4244802 1.7219431 229.33334
-0.42625356 -2.3645959 1.7603205 176
0.28334123 -2.3542657 1.7797515 224.66667
-0.40203035 -2.1460989 1.7318761 168.66667
0.13062605 -2.1294014 1.7982628 194
0.23548231 -2.1868541 1.7819042 218.66667
0.32900703 -2.2489364 1.7711701 198
-0.34745458 -2.0399854 1.7550629 198
-0.21207169 -2.0151119 1.7722093 166.5
-0.10816804 -1.9616306 1.7682718 186
0.096393555 -2.0263748 1.783112 200
0.15360512 -2.0868154 1.7880623 232
-0.19669095 -1.9406916 1.7411883 186
-0.28425744 -2.6636455 1.8127755 269
-0.057477415 -2.5903568 1.8435701 301
0.0076153278 -2.598418 1.8037878 378
-0.32147571 -2.5139654 1.802413 352
-0.21276055 -2.4474199 1.8365225 259.20001
-0.05967807 -2.4929652 1.8476981 253.5
0.05330804 -2.4624889 1.8562583 302.375
0.16745412 -2.4061692 1.836181 342
-0.33508337 -2.3166528 1.835197 243.33334
-0.22192159 -2.3490131 1.8481463 254.5
-0.10126792 -2.316442 1.8717111 282.66669
0.10414262 -2.3379602 1.8502936 246.25
0.22515687 -2.337575 1.8208315 270.5
-0.33908755 -2.20066 1.8230796 262
-0.22940838 -2.1717391 1.8347795 137
-0.064011157 -2.1892903 1.8644912 251
0.058739737 -2.1908078 1.8451777 170.66667
0.19568747 -2.2105212 1.805249 213
-0.094668835 -2.055697 1.8147608 102
