# .PCD v0.7 - Point Cloud Data file format
VERSION 0.7
FIELDS x y z intensity
SIZE 4 4 4 4
TYPE F F F F
COUNT 1 1 1 1
WIDTH 1
HEIGHT 58
VIEWPOINT 0 0 0 1 0 0 0
POINTS 58
DATA ascii
4.0967236 -1.6701137 0.050827891 279
4.008903 -1.6317152 0.060678646 358.5
4.1198306 -1.5737299 0.052009769 348.5
4.1852007 -1.4528713 0.04777813 404
4.2578745 -1.4244381 0.075822145 341.39999
4.1375141 -1.679116 0.24142021 365.33334
4.1108804 -1.577723 0.18642509 382
4.2801228 -1.5348783 0.29640499 359
4.264946 -1.4248418 0.21733274 383.5
4.1372061 -1.7236828 0.35770983 360
4.2095485 -1.5593358 0.37448555 328
4.3848419 -1.5209409 0.37413391 332
4.2742395 -1.4021806 0.37250963 376
4.1634808 -1.7271044 0.49303141 348.39999
4.2188058 -1.6780287 0.54539448 392
4.25418 -1.574352 0.51491094 338.66669
4.3037519 -1.4769415 0.49943817 396
4.2786579 -1.3418251 0.49570483 381
4.131424 -1.8001074 0.63621962 255
4.1064696 -1.7054358 0.69256878 341.33334
4.3039408 -1.7039218 0.690175 285
4.1737647 -1.5644836 0.72188199 317
4.2336378 -1.584448 0.63352525 287
4.3980074 -1.6069735 0.74114931 297
4.2611318 -1.4897555 0.67839074 277
4.3650651 -1.4310244 0.66765136 300.33334
4.3244262 -1.3415387 0.72452706 305
4.0131645 -1.7525638 0.8131628 2867
4.4128652 -1.7392942 0.85096312 269
4.0893688 -1.5973499 0.81156474 2708
4.3419003 -1.578387 0.83534586 346
4.2039824 -1.474399 0.81632686 911
4.4186096 -1.4751076 0.83784795 277
4.279459 -1.3204293 0.81659925 1917
4.1209755 -1.7441878 0.97363532 321.5
4.3734064 -1.7156655 0.95057511 319
4.1950192 -1.5846909 1.0228854 343
4.2182641 -1.5901989 0.92402303 321
4.4527783 -1.6144203 0.95381236 309
4.2433329 -1.4950612 0.97252101 554
4.4098186 -1.462028 0.99267942 292
4.3928018 -1.3481088 0.9839474 293
4.0428758 -1.777567 1.1192513 473
4.1096606 -1.6812363 1.1214242 353
4.360806 -1.7033385 1.0550635 313
4.1156096 -1.5563749 1.1119095 1625
4.4148555 -1.5928843 1.0549184 311
4.1953325 -1.4827719 1.1193569 331
4.4404569 -1.4627916 1.1590624 313
4.3231454 -1.3158387 1.1289779 2017
4.0836735 -1.8004394 1.2341921 311
4.0685205 -1.6668713 1.2180012 1887
4.2538881 -1.6161737 1.2479326 293
4.1782074 -1.4800857 1.2215648 435
4.2293596 -1.8748412 1.4370202 293
4.2902832 -1.7255545 1.4522815 299.66669
4.333087 -1.599221 1.4293382 260
4.3999047 -1.5680159 1.3842074 303
