# .PCD v0.7 - Point Cloud Data file format
VERSION 0.7
FIELDS x y z intensity
SIZE 4 4 4 4
TYPE F F F F
COUNT 1 1 1 1
WIDTH 1
HEIGHT 55
VIEWPOINT 0 0 0 1 0 0 0
POINTS 55
DATA ascii
1.339347 4.4534426 1.7797379 253
7.0630422 3.2209866 3.6714134 406
6.9032378 3.333065 3.6327617 402
7.0822916 3.0303817 3.8227649 378
6.6602879 3.2459192 3.8639894 368
7.0575452 3.2181218 3.8519812 434
6.5844159 3.4137192 3.8728805 408
6.6326065 3.4023721 3.8904066 346
6.7967429 3.3181515 3.7671704 424
7.1531353 3.2702732 3.902777 332
6.5253472 3.3695941 3.9981005 276
6.0956831 3.1391833 4.1498828 426
6.2210846 3.0951371 4.1359158 235
6.2646642 3.2151153 4.1266594 395
6.4209199 3.3015268 4.0842991 330
6.3190866 2.8042402 4.2848892 245
6.5721173 2.7855713 4.2955689 420
6.7171063 2.8429582 4.251195 364
6.1103787 2.9290259 4.261148 409
6.3788905 2.9331565 4.2345552 245
6.4674516 2.8834639 4.2666454 410
6.6143579 2.9627166 4.2296209 288
6.057456 3.0691414 4.274272 248
6.2795706 3.0590031 4.2767859 318.5
6.3363476 3.0582681 4.247005 378
5.9945402 3.2181411 4.2365623 372
6.5660033 2.6169612 4.4751453 237
6.4960551 2.76542 4.4748015 306
6.6101241 2.8091402 4.4402523 237
6.2788453 2.8982809 4.3934326 404
6.4592772 2.8590052 4.4798636 468
5.9792576 3.0126817 4.3553133 396
6.2565675 3.057256 4.4274058 249
6.0827537 3.2570281 4.3973799 424
6.2663622 3.2411454 4.4345284 425
6.3530779 2.5422292 4.5050068 396
6.3480272 2.6041219 4.580678 412
6.4544487 2.6684289 4.5182524 257
6.3790693 2.8027091 4.5822229 241
6.4766178 2.7709911 4.6368175 452
6.6390576 2.7580562 4.5510716 440
6.773972 2.8269005 4.5320177 736
6.1754818 2.9275653 4.574676 255
6.3208714 2.9326437 4.5950985 241
6.1367025 3.0762389 4.5991712 241
6.2972293 3.0922308 4.6300454 243
6.3555284 3.0365076 4.5663929 233
6.1314502 3.2738118 4.5192885 231
6.1670151 3.2049463 4.5941739 410
6.1299572 3.3698213 4.6284585 304
6.2919002 2.7188463 4.6751828 398
6.1672716 2.888648 4.6530347 428
6.1374259 3.0410883 4.6838789 233
6.0773444 3.187428 4.6979685 264
6.2185493 3.302006 4.7179217 444
