# .PCD v0.7 - Point Cloud Data file format
VERSION 0.7
FIELDS x y z intensity
SIZE 4 4 4 4
TYPE F F F F
COUNT 1 1 1 1
WIDTH 1
HEIGHT 95
VIEWPOINT 0 0 0 1 0 0 0
POINTS 95
DATA ascii
-0.3396332 -6.4947462 2.4663129 306
-1.5032948 5.2488828 0.12266701 350
-1.4358543 5.3076873 0.066812627 352.80002
-1.2316856 5.3583269 0.06118995 374
-1.3564563 5.4257975 0.05513081 380
-1.3409171 5.4029417 0.11206028 358
-1.1621151 5.4552536 0.087240033 394
-1.0676231 5.5553274 0.07047528 405
-0.94168377 5.6169653 0.073788241 388.66669
-1.512532 5.2498703 0.25798315 350
-1.5106876 5.2572031 0.18635955 356
-1.4201968 5.3278933 0.21767098 359
-1.2433038 5.3585978 0.21233884 380
-1.3321753 5.4193354 0.2124601 350
-1.1487744 5.4604869 0.20668548 392
-1.0624026 5.5893478 0.16319831 416
-0.96999437 5.6094646 0.20440713 394.39999
-1.5125593 5.2324433 0.38084108 343
-1.4166859 5.3339334 0.37733942 348.5
-1.2717388 5.384315 0.38695651 374
-1.3145369 5.4075928 0.32983911 374
-1.143513 5.4613414 0.36781102 382.5
-1.0202312 5.5800676 0.36307818 400
-0.88941509 5.6781573 0.35839939 317
-1.5190026 5.2352285 0.51756918 348
-1.4088871 5.3241124 0.51478785 349
-1.2606832 5.372931 0.5098241 360
-1.3034846 5.4375768 0.5127067 370
-1.1382245 5.4591117 0.50664222 377
-1.0138367 5.572958 0.50397319 391
-1.5220834 5.2298918 0.67137688 351
-1.4054875 5.329885 0.669949 363
-1.2645915 5.3698888 0.66507757 373
-1.2844884 5.4254608 0.66844034 353
-1.1322719 5.4567351 0.66283619 381
-1.0075532 5.5690422 0.66240621 397
-1.5293976 5.2380919 0.83801645 324
-1.4024087 5.3383121 0.83795762 357
-1.2687212 5.36904 0.83268118 346
-1.2616825 5.4011359 0.83466798 348
-1.1292059 5.4671431 0.83238828 370
-1.0000262 5.5614285 0.83267713 372
-1.5277859 5.2253914 0.95475674 348
-1.4007909 5.3459635 0.95777148 342
-1.2658314 5.3496947 0.94966066 350
-1.2593694 5.4312282 0.95697057 366
-1.1235631 5.4613781 0.95171583 358
-0.9717145 5.5470142 0.95119596 364
-1.0148022 5.5523577 0.95412827 374
-1.3465816 5.3456368 1.0781852 346
-1.2417674 5.4076352 1.0782062 366
-1.0802498 5.4724188 1.0752225 374
-0.96607387 5.5710554 1.0797062 364
4.024219 -1.417979 0.02898561 296.33334
4.1007872 -1.4001586 0.07199394 329.33334
4.0418844 -1.3221247 0.11148182 370
4.0835247 -1.3478601 0.0097285807 307
4.1297331 -1.3307962 0.23054418 380
4.4536304 -1.5597588 0.37471175 222
4.2327204 -1.3641285 0.37197682 368
4.1879611 -1.3497565 0.37174124 344
4.3227639 -1.5375012 0.54523623 388
4.3764076 -1.5212438 0.50228119 313.5
4.2374725 -1.3662285 0.50911433 397.33334
4.188694 -1.3440034 0.45113471 382
4.3026514 -1.2928305 0.53824377 400
4.3683963 -1.2670411 0.54022968 253
4.4600191 -1.6664629 0.69888884 286
4.2916145 -1.5318499 0.68165123 289
4.2801495 -1.408989 0.67670989 323.16669
4.2810421 -1.2619967 0.6256544 325
4.368464 -1.3223245 0.72733235 303
4.5970192 -1.1531425 0.74011779 285
4.3979325 -1.6314493 0.84366238 321
4.1858158 -1.4630527 0.81396323 2414
4.2164817 -1.3789206 0.81292021 2317
4.2472773 -1.3130391 0.81300855 1619
4.4348464 -1.2265904 0.82849312 291
4.4404869 -1.7196059 0.958848 196
4.2916498 -1.5419855 0.92993772 307
4.3882608 -1.6020625 0.99798608 309
4.3108859 -1.4237374 0.96681786 317.80002
4.2942934 -1.281606 1.0176901 354
4.3773036 -1.2736113 0.92586994 301
4.3365307 -1.5867066 1.1509569 1367
4.3842535 -1.5989779 1.1050687 317
4.2595787 -1.4208947 1.1255316 992
4.2478943 -1.3100226 1.1157701 404
4.240087 -1.4028186 1.2269897 1347
4.4143381 -1.4271133 1.2625933 349.5
4.3144078 -1.3249302 1.2352856 305
4.5288982 -1.2713732 1.2732853 241.5
4.4550552 -1.3768482 1.4167718 321.33334
4.4661012 -1.2586483 1.4287314 274
4.5334959 -1.2664236 1.3874309 305
