# .PCD v0.7 - Point Cloud Data file format
VERSION 0.7
FIELDS x y z intensity
SIZE 4 4 4 4
TYPE F F F F
COUNT 1 1 1 1
WIDTH 1
HEIGHT 56
VIEWPOINT 0 0 0 1 0 0 0
POINTS 56
DATA ascii
2.0310416 -3.1507714 0.10241687 273
-0.4996984 3.648437 0.11437093 342.5
-0.42691755 3.6913009 0.090750031 254.33334
-0.70367783 3.9670653 0.098565161 265.66669
-0.54852396 3.5946221 0.25259894 281
-0.4408547 3.5415797 0.27471739 293
-0.66261923 3.6463125 0.25376257 272
-0.49139124 3.6516538 0.19658279 255
-0.39925894 3.676918 0.22319555 273.66669
-0.65475404 3.8997324 0.21954654 270
-0.70299345 3.9457989 0.17206603 254
-0.55191052 3.944221 0.24119148 352.5
-0.52640432 3.5744295 0.40238664 288
-0.4454945 3.5464311 0.35488498 300
-0.66325229 3.6282659 0.3617062 280
-0.47204122 3.6674154 0.44740745 263
-0.37530622 3.6468754 0.38280016 287.66669
-0.51067662 3.8081827 0.35530075 329
-0.75643581 3.5851274 0.5265798 252
-0.66026443 3.5910649 0.5562247 285
-0.50472373 3.565963 0.5480389 297
-0.76165378 3.6031125 0.5254305 265
-0.6598537 3.6014619 0.45337135 275
-0.46088597 3.6622295 0.55047458 294
-0.35730815 3.6374824 0.54508495 288
-0.75272781 3.5552077 0.70926815 282
-0.65383494 3.5521722 0.70318794 280
-0.56068885 3.5810232 0.70065218 294
-0.49346995 3.6145961 0.68684977 306
-0.39165288 3.6307392 0.69608605 304
-0.75850749 3.5664439 0.8323884 285
-0.65867639 3.5613616 0.82516783 299
-0.53420812 3.651336 0.80693471 276.5
-0.36015531 3.6192052 0.84232301 291.66669
-0.70302355 3.5361962 0.95353806 290
-0.56460667 3.578073 0.94973713 297
-0.49892545 3.6594837 0.94253588 275
-0.38687584 3.638413 0.96164387 290.33334
-0.63063121 3.4336424 1.1508026 291
-0.53393042 3.4332311 1.1422224 297
-0.75075674 3.5244951 1.0889442 289
-0.68568534 3.4951091 1.1080691 300
-0.50934124 3.5359716 1.1159037 277
-0.81472433 3.6536937 1.1184008 273
-0.48440078 3.6560006 1.0917376 265
-0.37489709 3.6411071 1.1121023 291.66669
-0.29880127 3.6064553 1.160892 307
-0.63018084 3.427619 1.2404037 283
-0.53877544 3.4491346 1.236824 279
-0.77228534 3.5624142 1.2861792 231
-0.70641077 3.5238829 1.2705264 329.5
-0.27854201 3.5476933 1.2854302 279
-0.81910849 3.6951528 1.2230343 289
-0.47993883 3.6228683 1.272706 285
-0.39103714 3.61917 1.2645056 261
-0.73331749 3.7645712 1.2294285 273
