# .PCD v0.7 - Point Cloud Data file format
VERSION 0.7
FIELDS x y z intensity
SIZE 4 4 4 4
TYPE F F F F
COUNT 1 1 1 1
WIDTH 1
HEIGHT 57
VIEWPOINT 0 0 0 1 0 0 0
POINTS 57
DATA ascii
-1.2988049 4.8561544 0.087867856 312
4.1415792 0.14437841 0.061455339 243
4.0205994 0.20502579 0.071914464 309
4.1121564 0.2449162 0.065206394 307
4.3228726 0.55573821 0.099323094 371.5
4.4380188 0.49963459 0.056483608 269
4.0765662 0.12408112 0.29396772 232
4.0288553 0.21825956 0.23305002 305
4.0699501 0.22865695 0.23157284 312.33334
4.3723979 0.44594041 0.29003686 311
4.3309593 0.54785216 0.18984386 313
4.4201589 0.4867034 0.23751786 290.5
4.119772 0.13150798 0.43701744 410
4.103569 0.22625221 0.4001081 306.5
4.2947683 0.41031671 0.42250624 302
4.3891535 0.38845488 0.39095479 304.33334
4.1819739 0.13805845 0.51770687 281
4.0780945 0.24810076 0.55404741 313.33334
4.1066031 0.43383002 0.59785044 317
4.2652903 0.40833148 0.52270305 302.33334
4.1386909 0.10881668 0.65410393 303
3.9994771 0.28269336 0.6718694 349
4.0802507 0.22417253 0.67832589 328
4.0775509 0.39183283 0.67973268 319.66669
4.2409344 0.38648784 0.60589623 305
4.1381674 -0.0061889198 0.77086139 297
4.1122518 0.095845804 0.76826447 299
4.0226936 0.26335093 0.80399323 338
4.0691867 0.19457334 0.80887598 331
4.2114744 0.15681247 0.87214041 289
4.0801649 0.38412622 0.80338806 326.20001
4.1427798 0.45043048 0.86689079 313
4.2274122 0.51062584 0.8320303 308
4.0286484 0.085109353 0.98418742 249.5
4.0099049 0.21804872 0.99156016 324.20001
4.0819778 0.21565998 0.97893202 303.66669
4.0766716 0.36933184 0.99595845 342
4.175375 0.47747976 0.9664517 310
4.0515656 0.079007275 1.1301053 287
3.9954393 0.21471852 1.1198964 334
4.0403719 0.36654854 1.1318977 355
4.0844679 0.36843577 1.1409864 347
4.1797705 0.47732329 1.1138675 316
3.9961565 0.20490856 1.2343695 349
4.1289549 0.25969669 1.3465236 277
4.1115894 0.37195683 1.2451403 326
4.2563028 0.48596686 1.2817733 286
4.2615561 -0.013600238 1.4820316 289
4.3517327 -0.018593775 1.4013495 267
4.227541 0.071824953 1.4382414 296.33334
4.1611457 0.21298757 1.4148802 316
4.1656775 0.36907214 1.3585459 307
4.289453 0.39681876 1.3910439 279
4.2138 0.48127374 1.374416 394
4.1702461 -0.0088252556 1.5578461 348
4.1554089 0.063153557 1.5534259 309
4.0999274 0.16200881 1.5372556 356
