# .PCD v0.7 - Point Cloud Data file format
VERSION 0.7
FIELDS x y z intensity
SIZE 4 4 4 4
TYPE F F F F
COUNT 1 1 1 1
WIDTH 1
HEIGHT 169
VIEWPOINT 0 0 0 1 0 0 0
POINTS 169
DATA ascii
-0.36689216 -3.7637377 0.1249743 311.33334
-0.38335493 2.5453563 0.14315546 359
-0.46643582 2.6398742 0.13616166 293
-0.3501628 1.7692909 0.28468287 343
-0.34199393 1.8662335 0.24554329 309.60001
-0.4555054 2.3928134 0.18230364 281
-0.40400094 2.3877919 0.23307583 295
-0.27090991 2.3505781 0.22072984 325
-0.45295778 2.4800358 0.20378228 294
-0.36375067 2.4697356 0.24164708 297.85715
-0.20068972 2.4776542 0.21950898 307
-0.46138802 2.5607531 0.25200391 281
-0.42653164 2.5691259 0.20430195 288.33334
-0.19832316 2.6523709 0.25711617 469
-0.33734721 1.767303 0.42928946 403
-0.3394812 1.8491404 0.36417687 311.5
-0.28741106 1.9316328 0.39199388 302
-0.38709721 2.3489974 0.36635301 310.33334
-0.2906265 2.3410797 0.36113128 425
-0.45361713 2.5228422 0.30234978 267
-0.36485419 2.4494569 0.35269177 302.33334
-0.25514337 2.4058468 0.30005872 329
-0.29872617 2.6260741 0.33403122 321
-0.33862108 1.7450656 0.52140278 413.80002
-0.26097235 1.7430447 0.57752341 415
-0.32237178 1.8590931 0.54825848 316.33334
-0.2345106 1.8699787 0.55769402 358.5
-0.38222691 2.038388 0.49352461 385
-0.34863928 2.1854565 0.52925068 324.75
-0.27416882 2.2160373 0.53686351 334.33334
-0.35998484 2.3056874 0.46093613 317
-0.23874344 2.3029046 0.5086695 317.28574
-0.19429997 2.5673652 0.56676304 271
-0.30758211 1.6125865 0.69852203 350
-0.20821871 1.6341012 0.67232072 214
-0.32217595 1.6573349 0.62300152 152
-0.24710405 1.7207787 0.67898905 288.75
-0.20543349 1.8637254 0.65726185 310.66669
-0.27519646 1.9620476 0.66101503 601
-0.34913471 2.2117386 0.64789319 323
-0.23651975 2.3279169 0.65554899 320.33334
-0.32790279 2.453454 0.70318633 297
-0.23348203 2.4546905 0.69291848 301.80002
-0.14014798 2.5427155 0.7336567 291
-0.25405148 2.6051736 0.65814245 289
-0.12114064 2.5885415 0.67940956 301.5
-0.23256633 1.7220243 0.79096341 340
-0.14897522 1.7285045 0.75007606 388
-0.20333362 2.3598454 0.82847816 318.75
-0.21920195 2.4112575 0.82679701 283
-0.13896324 2.5270145 0.82351297 299
-0.087655813 2.5977101 0.83292407 300
-0.18186253 2.7454276 0.89894712 297
-0.048320204 2.7392879 0.88951325 286
-0.25182033 2.1576664 0.98616928 311.5
-0.20565367 2.3468428 0.96778983 292.33334
-0.1477755 2.2714911 1.0146391 303
-0.19472736 2.4175172 0.99474889 279
-0.13282353 2.4769828 0.97213143 280.33334
-0.073514223 2.5708694 0.9570238 298
-0.30049691 2.1879163 1.1576859 361
-0.2474817 2.1914868 1.0922021 333.66669
-0.13845634 2.2157576 1.0883919 373
-0.40300253 2.2645969 1.1334468 305
-0.25020772 2.3053939 1.1281784 297
-0.18503872 2.4066558 1.0877752 273
-0.43112507 2.3947756 1.3111188 402
-0.44218978 2.4143765 1.252135 301
1.187862 3.2938304 0.055323213 315
1.2748687 3.2885299 0.056514874 307.66669
1.1548086 3.324862 0.086380742 288.5
1.2495756 3.3424304 0.11119647 296.5
1.4092506 3.3372827 0.083444498 297.57144
1.5543377 3.4308345 0.073088072 284.33334
1.3417319 3.259877 0.1748156 326
1.4403952 3.2407119 0.22765206 318.25
1.5073642 3.2492604 0.26220506 284
1.4447093 3.3300037 0.19915643 338
1.5733002 3.4372363 0.18073285 289
1.374315 3.4764528 0.22658238 321.75
1.4816532 3.215014 0.37660307 296
1.5694604 3.2054543 0.38242751 300.42859
1.4226589 3.3746345 0.39369097 278.20001
1.3895869 3.4657056 0.36778742 294.5
1.4980122 3.1340001 0.56715977 315
1.3317114 3.2766883 0.57888067 301
1.4486903 3.225071 0.54611981 300.20001
1.569273 3.1999567 0.52953762 304.80002
1.398201 3.3970268 0.53249341 285
1.5105472 3.1490562 0.63999403 311
1.3223522 3.233077 0.69809389 317.66669
1.446341 3.2290869 0.68543518 295.33334
1.5276638 3.1752512 0.7178129 307
1.3528612 3.3027112 0.65435404 309
1.3340458 3.2684331 0.83336544 305.66669
1.4402483 3.2739332 0.85752833 296.20001
1.5732011 3.2632143 0.85034901 291
1.4415499 3.1363053 1.0333365 289
1.3176203 3.2025986 1.0138601 305
1.4108357 3.2249687 0.96518707 308.33334
1.5861291 3.2683179 0.97860372 305
1.3341094 3.1231809 1.1105316 309
1.4343064 3.0922205 1.1080648 416
1.5452794 3.0797153 1.1396775 301.66669
1.6912754 3.0151625 1.1917933 293
1.297969 3.2024057 1.1272907 313
1.4266479 3.2296455 1.1097059 306.33334
1.575406 3.2236412 1.0567205 303
1.6046919 3.052038 1.2371929 312.5
1.4147949 3.1728287 1.2125894 286
1.6207948 3.2800269 1.3442998 301
1.3287421 3.3017845 1.2408895 291
1.5266556 3.3709602 1.2685931 299
1.4868098 3.27035 1.4242371 362
1.6271958 3.2771151 1.4374905 291
1.3373392 3.33549 1.4339045 318
1.4082426 3.3716736 1.3867205 312
1.5180693 3.3511806 1.3565472 299
1.4072995 3.2526674 1.5044094 354
1.6006855 3.1951666 1.5024282 330
5.0817647 -1.2269161 0.12100741 380
5.1412644 -1.2366949 0.045706481 418
5.1209035 -1.1302285 0.04763779 350
5.0714588 -0.97679651 0.086836994 386
5.324935 -0.87094152 0.11058113 364
5.4241796 -0.89463848 0.030412763 283
5.0736852 -1.2301139 0.19850954 346
5.1081209 -1.2441663 0.28176776 354
5.2747879 -1.14924 0.23557992 341
5.0682993 -0.96354002 0.23990647 347
5.3527575 -0.86592233 0.23313022 351
5.1411057 -1.2439481 0.37236848 341
5.2486405 -1.133094 0.37164709 400
5.1190462 -0.96410078 0.36999553 390
5.3137426 -1.0001948 0.37077934 272
5.3375869 -0.85351485 0.36985609 264
5.0866485 -1.2539657 0.56861401 370
5.1227369 -1.2296206 0.50187111 367.33334
5.1552219 -1.101789 0.51795709 389
5.1718693 -0.97068614 0.53379118 360.33334
5.2555089 -0.99397415 0.4680804 310
5.0740986 -1.25569 0.67319524 432
5.140511 -1.2093829 0.67611921 269
5.1559863 -1.0918692 0.6744194 301
5.3003411 -1.1679473 0.68496001 243
5.1996393 -0.97683352 0.67479253 294
5.0668287 -1.2587311 0.7818718 1033
5.0548716 -1.1219606 0.7769593 2391
5.05197 -0.94922096 0.82780099 2396
5.1828794 -0.969329 0.84110892 304
5.146462 -1.287076 0.96370548 303
5.1735048 -1.1390855 0.96139777 306
5.1696053 -0.96849096 1.0142803 307
5.0122132 -1.2588252 1.1232165 2791
5.027699 -1.1542895 1.1206203 2399
5.0642099 -1.0447532 1.1214479 2439
5.1233735 -0.95884269 1.1271496 1216
5.3460698 -0.92030585 1.159838 277
5.3773899 -0.81346142 1.1612185 251
5.4848332 -0.8374204 1.0513017 316
5.5137358 -0.67865193 1.1785938 239
5.1001287 -1.2869987 1.2610711 300
5.2318273 -1.196717 1.2792374 274
5.0605931 -0.9899841 1.2393466 2101
5.3203373 -0.949817 1.2836344 416
5.194839 -1.1807528 1.3994619 380
5.2010436 -1.0240146 1.3924271 392
5.3661823 -0.95155025 1.4223404 257
5.2976828 -1.0491664 1.5442295 249
