# .PCD v0.7 - Point Cloud Data file format
VERSION 0.7
FIELDS x y z intensity
SIZE 4 4 4 4
TYPE F F F F
COUNT 1 1 1 1
WIDTH 1
HEIGHT 79
VIEWPOINT 0 0 0 1 0 0 0
POINTS 79
DATA ascii
3.3426645 -3.4627542 2.6649606 277
1.7212321 -5.9942961 3.0882192 380
1.8400766 -5.9085493 3.0589781 401
1.4534872 -5.7289734 3.1045194 246
1.703997 -6.0729051 3.2809913 724
1.7101463 -5.9565659 3.2271862 446
1.8014085 -5.8542008 3.1864784 406
1.5213827 -5.8438935 3.1622896 432
1.891224 -5.78022 3.1598673 421
1.9926062 -5.7851782 3.1713307 582
1.534168 -6.0586987 3.418308 524
1.7249813 -6.066782 3.4352381 617
1.3528993 -5.9726729 3.3659222 484
1.5294241 -5.8907962 3.3351467 420
1.865123 -5.8767543 3.3539047 446
1.3417523 -5.7929487 3.418519 477
1.6616964 -5.7917347 3.439189 247
1.8246124 -5.7357192 3.4247665 460
1.2285422 -6.1093454 3.5782611 360
1.5197885 -5.893302 3.4811773 472
1.6729497 -5.820147 3.4546993 424
1.2444654 -6.1329799 3.7358978 408
1.3918941 -6.0370631 3.6910033 512
1.5561484 -6.0462599 3.7064443 494
1.7341676 -6.0630627 3.7293925 432
1.5416423 -5.9694147 3.6639154 500
1.6961869 -5.8372684 3.737431 406
1.3950284 -6.0062528 3.8094397 418
1.5747292 -6.0771394 3.8616061 430
1.6916201 -5.9185858 3.7824161 434
1.2766372 -6.2586479 3.9459629 350
1.4372714 -6.2239695 4.0003624 414
1.5810635 -6.1672421 3.9126959 450
1.266143 -6.1207447 3.9966173 348
1.3669963 -5.924799 3.9457035 397
1.5505493 -5.9352684 3.9460437 398
1.6822928 -5.8983731 3.9554369 412
1.8626007 -5.9059606 3.9190297 450
1.3764064 -5.7894425 3.9237471 250
1.2635176 -6.035532 4.0659018 278
1.5420682 -6.0124068 4.0705729 470
2.44892 6.2097397 3.4134169 362
2.6326358 6.191659 3.4279151 247
2.682548 6.3160548 3.3182516 374
2.4246154 6.1472807 3.544307 374
2.5690708 6.0834332 3.5328627 245
2.399437 6.1527691 3.543812 256
2.630944 6.3378038 3.4932387 245
2.5070651 5.9351454 3.6067605 414
2.4163582 6.1310329 3.6916478 396
2.6030035 6.1274934 3.715683 420
2.7490363 6.0831361 3.715858 506
2.4296882 6.2015405 3.7285895 416
2.8319943 5.8184514 3.8865852 166
2.3752809 5.9730983 3.8931537 330
2.3865173 6.0407219 3.7908316 338
2.570812 6.0599828 3.827585 282.5
2.7768388 6.1210766 3.8916361 243
2.6836181 5.8303056 3.9964957 404
2.9670153 5.7507849 4.0083442 672
2.7135596 5.9535437 3.9366884 244
2.8599415 5.850163 4.0406361 422
2.8424852 5.8587728 4.1657047 412
2.8840117 5.8767328 4.1842012 544
2.7660918 6.1112614 4.1661019 420
2.789521 5.7923126 4.2621474 351
2.5171623 5.9457316 4.2665925 94
2.6455007 5.9810944 4.3108964 391
2.7077856 5.9775796 4.2069607 233
2.9286671 5.9499483 4.348865 422
2.7757714 6.0229301 4.2455139 420
2.6245811 5.8183699 4.4734235 414
2.7961175 5.7879505 4.4127135 443
2.6393433 5.9564414 4.3977013 411
2.774004 5.9622455 4.4276981 243
2.549336 5.6945896 4.5305748 402
2.7281642 5.6992517 4.5726781 452
2.8658111 5.6386881 4.5662756 253
2.611558 5.9889035 4.5013676 408
