# .PCD v0.7 - Point Cloud Data file format
VERSION 0.7
FIELDS x y z intensity
SIZE 4 4 4 4
TYPE F F F F
COUNT 1 1 1 1
WIDTH 1
HEIGHT 57
VIEWPOINT 0 0 0 1 0 0 0
POINTS 57
DATA ascii
1.1095575 -6.7329402 0.98787546 352
3.5659714 -0.65921754 0.046113566 322
3.6845174 -0.68397188 0.088793777 280.5
3.7951078 -0.63186145 0.086708032 343.16669
4.1537523 -0.60723436 0.084129624 401
4.2015109 -0.6220873 0.0090354979 301
4.1762347 -0.55524367 0.07430096 386
4.2142639 -0.53450245 0.041071288 328.33334
3.9670351 -0.75143301 0.2969991 394
3.7475963 -0.70916563 0.18502216 390
3.8304961 -0.68405354 0.23180237 393.5
3.9572062 -0.66058397 0.26548111 381
4.0462284 -0.57401997 0.2952117 380
4.1105599 -0.56321806 0.21768402 372
3.982188 -0.76382005 0.38981876 414
4.0653558 -0.76129562 0.4399431 245
3.8777735 -0.65062958 0.36441243 382
4.0009012 -0.66465074 0.41318923 324.33334
4.0131736 -0.56996775 0.41266632 404
4.0631742 -0.57141644 0.36446509 410
3.9975224 -0.78216439 0.55635929 254
4.0814118 -0.75939828 0.51897788 253
3.9737267 -0.67517519 0.56083041 322.39999
4.0147204 -0.56784022 0.55377519 283.75
3.9632015 -0.41311502 0.58854866 351
3.9261763 -0.77291501 0.67400396 313
3.8630669 -0.66108024 0.72862005 2091.5
3.928741 -0.6741643 0.6719445 319
3.8907394 -0.57013112 0.66660309 337
3.9701335 -0.53838235 0.67274797 327
3.9820533 -0.44083822 0.67222297 291
4.0351753 -0.94363582 0.86774719 280
4.1624956 -0.92809522 0.88337147 261
3.8657639 -0.76387078 0.75272524 1719
4.0002384 -0.82125419 0.82825804 364
3.8393984 -0.66631979 0.83268225 2407
3.9477544 -0.66766256 0.84680772 353
3.8635933 -0.57151687 0.78992426 1644
3.9672408 -0.5156976 0.81636178 566.33337
4.0681915 -0.49472788 0.76784641 285
3.9694729 -0.43468231 0.75615466 251
3.9799361 -0.83561289 0.99504304 444.66669
3.934855 -0.66858864 0.98074186 351.33334
3.8842616 -0.54817331 0.96855605 350
3.9307301 -0.51849961 0.97521245 343
4.0031195 -0.9013837 1.145871 373
3.8886244 -0.78349423 1.1165881 2321
4.0401731 -0.82385993 1.1490815 309
3.8677592 -0.68273848 1.1075327 2062
3.8378887 -0.58518934 1.0973721 2488
3.9595261 -0.5045886 1.1192354 279.5
4.0160704 -0.81486118 1.2416575 402
3.9774568 -0.68116724 1.2503775 285.25
4.0941401 -0.62860823 1.3000158 313
4.0913901 -0.68330687 1.4127898 264.60001
4.128654 -0.53100252 1.4559953 283
4.2593269 -0.5440259 1.3883977 301
