# .PCD v0.7 - Point Cloud Data file format
VERSION 0.7
FIELDS x y z intensity
SIZE 4 4 4 4
TYPE F F F F
COUNT 1 1 1 1
WIDTH 1
HEIGHT 53
VIEWPOINT 0 0 0 1 0 0 0
POINTS 53
DATA ascii
-1.1931698 4.470293 0.037896782 384
4.5371814 -0.90044308 0.028296262 288
4.7271152 -1.0040205 0.074122824 300.5
4.5951872 -0.80663061 0.10375842 278.33334
4.6654944 -0.7998929 0.077277392 283
4.5227642 -0.73726988 0.030603528 396
4.7379179 -1.0414793 0.24779192 360
4.8611588 -0.94272327 0.25790355 347.66669
4.6095572 -0.7749846 0.25031766 363
4.6690149 -0.78037488 0.24895293 316.5
4.6385927 -0.66916591 0.28663206 332
4.782743 -0.67893845 0.28450552 266
4.7618847 -1.0543139 0.36980027 374
4.8477244 -0.94108748 0.36910614 379
4.7413216 -0.79509163 0.3677879 357
4.6995716 -0.6833207 0.3669824 382
4.7691259 -1.0655273 0.55223912 358
4.8160625 -1.0718557 0.45966437 366
4.7610898 -0.91203827 0.45655608 408
4.8189883 -0.94773364 0.50535893 369
4.7482147 -0.82615626 0.50135815 368.5
4.817204 -0.79204684 0.5499897 239
4.752656 -0.6987406 0.50001919 404
4.8558283 -1.0680078 0.65543872 415
4.7424178 -0.94349229 0.74628878 317
4.8308506 -0.95739758 0.65154552 257
4.7206287 -0.83423883 0.68210524 330.20001
4.7878499 -0.71147251 0.64450049 398
4.7834907 -1.078306 0.75325894 303
4.8391051 -1.0962886 0.86571252 295
4.752955 -0.95035732 0.85203159 311
4.8700991 -1.0391496 0.81313372 288
4.6291103 -0.86168832 0.83636713 2831
4.8032832 -0.83483106 0.85415304 279
4.8888969 -0.73227906 0.75397694 237
4.9847054 -1.0551844 0.99344063 398
5.140295 -1.1735165 1.0178335 279
4.6705813 -0.9374153 0.94887793 1969
4.7470865 -0.85408437 0.95600581 310
4.8376155 -0.77151358 0.96529543 404
5.0277085 -0.76429147 0.98983407 436
5.0095215 -1.0541294 1.1135246 330
4.7927132 -0.97265524 1.1913145 315
4.8101482 -0.97178489 1.0798548 319
4.7108498 -0.84614003 1.1157776 312
4.8829474 -0.74584997 1.0830231 299
4.8566322 -0.99103642 1.3215513 408
4.7709513 -0.84745884 1.2974061 299
4.9109797 -0.82383376 1.265764 290
4.9059215 -0.84041047 1.4447559 257.66669
4.9525447 -0.7716409 1.4521455 277
4.8765068 -0.87672234 1.5608276 334
4.951601 -0.77630091 1.5746509 283
