# .PCD v0.7 - Point Cloud Data file format
VERSION 0.7
FIELDS x y z intensity
SIZE 4 4 4 4
TYPE F F F F
COUNT 1 1 1 1
WIDTH 1
HEIGHT 147
VIEWPOINT 0 0 0 1 0 0 0
POINTS 147
DATA ascii
4.597435 8.5142393 5.2126026 309
-0.07964886 -1.5576094 0.27531582 350
-0.1119267 -1.4662497 0.25803727 318
-0.074545421 -1.2800319 0.27453169 430.11111
-0.070628285 -1.5331795 0.37604395 464.75
-0.074675858 -1.4962572 0.39133891 513
-0.07644248 -1.2711494 0.36860844 544.42859
-0.052837014 -1.7386463 0.53484935 305
-0.058041207 -1.5373586 0.51965535 450.25
-0.08447434 -1.411707 0.53209233 503
-0.10660337 -1.2956798 0.51726466 477
-0.071955979 -1.7062018 0.65315425 282
-0.05333022 -1.5227463 0.66767794 374
-0.089219049 -1.4147534 0.68352455 544.64703
-0.15272224 -1.3189462 0.73669183 643
-0.13087013 -1.3430361 0.65030599 499
-0.026100148 -1.5374838 0.84607887 429.20001
-0.21468467 -1.3688627 0.81472987 565.5
-0.07811673 -1.4159671 0.82294309 562.51996
-0.15149155 -1.3289666 0.79464471 696
-0.10718543 -1.3339376 0.83378971 666.33331
-0.032077402 -1.8598175 1.0164645 327.33334
-0.012478292 -1.6952941 1.0042012 358
0.03148381 -1.7045269 1.0261669 354.75
-0.023657292 -1.5431793 0.99872482 411.33334
0.04601609 -1.6119308 1.0327543 398
-0.20247078 -1.3694949 0.96859479 664.5
-0.078480795 -1.3998015 0.97685653 557.18182
-0.11473997 -1.3346583 0.96649265 628.40002
-0.011721413 -1.7308474 1.1412961 353
0.066848353 -1.7124631 1.093573 275
-0.029213401 -1.5530101 1.1133428 399.28574
0.075836465 -1.5748699 1.0970246 341.39999
-0.17880872 -1.3704898 1.1314119 472.5
-0.089132816 -1.427123 1.1179197 406.17648
0.082398094 -1.4674871 1.1250567 373.41669
-0.17906201 -1.3318757 1.0782441 657
-0.13186726 -1.3374946 1.0830656 498.33334
-0.026098063 -1.8159933 1.2596943 380.66669
-0.10373497 -1.7014115 1.3285321 271
-0.15476713 -1.5921189 1.3158315 279
-0.083567403 -1.5762995 1.2406803 316.14288
-0.17987609 -1.4360838 1.295298 377.83334
-0.12463635 -1.4679691 1.2069446 325
-0.078938544 -2.1605551 1.4689313 168
0.085658737 -2.149116 1.4720349 360
0.17802048 -2.1280413 1.480361 412
-0.23729762 -1.7359781 1.4503263 447
-0.13535008 -1.684216 1.3634876 273
-0.15680149 -1.5078356 1.4296672 297
-0.1434464 -1.5658696 1.4723951 263
-0.16933934 -1.4001112 1.3802099 349
-0.13232914 -1.4517795 1.4254853 405
-0.074758582 -2.1503685 1.5948871 272.57144
0.089241169 -2.1620145 1.5754359 317
0.23450565 -2.138386 1.5871 267.90909
0.314713 -2.1607742 1.6044711 291.66669
-0.30216691 -1.9712276 1.6394429 281
-0.18186414 -1.9946011 1.5955658 277.10001
-0.075728767 -2.0433118 1.5844668 335.39999
0.05299307 -2.024919 1.5990994 394.50003
0.19679931 -2.0456023 1.5934261 362.53336
0.31906855 -2.0284753 1.5942271 229.33334
-0.22190559 -1.898333 1.6077378 302.5
0.19831422 -1.9165696 1.632664 550.5
0.36280686 -1.8732405 1.5890988 181.33334
-0.23031315 -1.7462087 1.5535295 309
0.39406228 -1.7801945 1.5934393 170
-0.10783803 -2.1242497 1.6805263 267
0.26765871 -2.1319239 1.661451 291
-0.18564929 -2.0077868 1.6562917 284.5
-0.082662672 -2.0207932 1.689618 304.75
0.06374871 -2.0204675 1.6960691 340.30002
0.22843844 -2.0131717 1.6677998 325.66666
-0.21040587 -1.8613589 1.6554673 281.5
-0.091297172 -1.9237727 1.6889141 270
0.060257293 -1.9275582 1.701264 307.39999
0.25903699 -1.914041 1.6690971 319.71429
-0.17736441 -1.7903061 1.6650761 400
3.5956938 -0.46953431 0.062011361 311
3.6830823 -0.47552484 0.11683851 290
3.532016 -0.3907226 0.097762242 288
3.6060538 -0.40558612 0.028095752 260
4.1078663 -0.3173278 0.065268904 342
4.2234035 -0.30963653 0.10616119 253
4.1506987 -0.29955211 0.060418397 327
4.212029 -0.29980999 0.0100784 293
3.6960011 -0.48686156 0.22960155 357.25
3.588058 -0.41832 0.19314268 649
3.7541466 -0.44503623 0.26959926 409
4.1123652 -0.35224885 0.22995214 336.80002
4.0880346 -0.29728252 0.29398254 406
3.7480261 -0.46502438 0.36295307 408
3.8341048 -0.46657339 0.3976714 318.5
3.948854 -0.47996283 0.43479806 237
4.0429158 -0.31450146 0.39956221 405
4.1192265 -0.38063723 0.43794107 410
4.2072916 -0.39419189 0.36408913 239
4.1049213 -0.29164109 0.40024367 410
3.857214 -0.57163882 0.55831397 378
3.9302998 -0.48067355 0.5482049 242.5
3.8975449 -0.39164481 0.5069617 394
4.0105443 -0.36396646 0.57134289 324.5
4.0548449 -0.32178107 0.51312613 257
4.0261993 -0.27882037 0.51164401 398
4.0750484 -0.27783456 0.59442544 243
3.8732362 -0.62077153 0.66612262 272
3.8384464 -0.46495605 0.71536493 337
3.9422886 -0.52780545 0.6702286 341.5
3.872107 -0.35376129 0.7166853 338.33334
3.9646757 -0.35881218 0.69749761 297.66669
4.0204496 -0.26930159 0.67354667 315
4.1673613 -0.20980638 0.65692472 269.66669
3.8295093 -0.60339403 0.82955539 681
3.9322793 -0.61699611 0.75585794 295
3.835269 -0.51184928 0.82795769 1594
3.9256992 -0.55785388 0.75381017 305
3.8102691 -0.37173465 0.82184035 2453.5
4.0320354 -0.26100722 0.84938335 329
4.0857124 -0.23414512 0.81105727 242.25
3.7830698 -0.60840273 0.90952325 210
3.933619 -0.62484556 0.93318868 283
3.7415891 -0.59613657 0.98960286 388.5
3.8553572 -0.52196348 0.97725761 326.33334
3.912153 -0.49854925 0.92620492 317
3.8460252 -0.40417111 0.93618536 741
3.9271164 -0.35433549 0.99321473 337.5
4.0226603 -0.24960971 1.0002807 333.66669
4.0806651 -0.25976571 0.94775426 311
3.7772553 -0.60721719 1.131572 360
3.8016446 -0.50543237 1.132601 771.5
3.8406303 -0.4063212 1.1468185 1667.4
3.9129081 -0.33086199 1.1049383 654
4.0344181 -0.24749795 1.1283355 453
4.0582933 -0.25737083 1.1334059 299
3.9260104 -0.63857645 1.3079652 291
4.0341768 -0.49797001 1.3292756 300
4.0975881 -0.53997737 1.3470258 289
3.9905863 -0.37199554 1.2816652 387.33334
4.1537013 -0.25066742 1.252252 271
4.0990515 -0.65512645 1.4537938 296.5
3.9398153 -0.52660698 1.4028327 360
4.0786295 -0.54126096 1.4424185 283
4.0615506 -0.44990557 1.4338324 257
3.9361379 -0.64780331 1.5050706 336
3.9955258 -0.53154278 1.5168399 333
4.0114346 -0.44789395 1.5179404 291
