# .PCD v0.7 - Point Cloud Data file format
VERSION 0.7
FIELDS x y z intensity
SIZE 4 4 4 4
TYPE F F F F
COUNT 1 1 1 1
WIDTH 1
HEIGHT 52
VIEWPOINT 0 0 0 1 0 0 0
POINTS 52
DATA ascii
0.99833906 -3.5093307 0.086162895 240
0.59928334 3.5522256 0.027525932 172
0.69330466 3.5640311 0.022416174 354
0.53153545 3.7013369 0.081622675 290.75
0.68670958 3.6867557 0.099765658 280.66669
0.39200729 3.6961749 0.22317341 282.25
0.54010779 3.6843209 0.23597856 293.125
0.6815865 3.6985502 0.22280152 274.75
0.75717223 3.6852024 0.25796729 270.5
0.38556185 3.7218938 0.38654569 291
0.54637843 3.7090232 0.37466893 292.60001
0.67143053 3.667872 0.37635255 291
0.76583254 3.6563287 0.37318385 299
0.52002633 3.8261695 0.39347371 281.66669
0.38094297 3.7012575 0.52019501 289
0.48404801 3.67787 0.51596785 302
0.65897942 3.7045188 0.52395707 291.66669
0.78074032 3.6691325 0.50686401 295
0.53224248 3.7955291 0.50797594 283.66669
0.37788433 3.7147806 0.6722483 299
0.51076013 3.7240529 0.70842159 303
0.65499318 3.6891439 0.6618706 296.5
0.79496753 3.6971998 0.61955237 277
0.49644101 3.7661061 0.63273835 279
0.82051384 3.825783 0.71089184 283
0.49280804 3.9055512 0.72673202 273
0.37514102 3.7476745 0.88408804 303
0.51607931 3.697068 0.78760135 315
0.626297 3.7159724 0.83008349 299
0.37814867 3.8044233 0.80448496 297
0.48587185 3.8234723 0.84758383 298
0.72493756 3.7725368 0.83546644 300
0.83042794 3.8174438 0.83919644 291
0.37366763 3.7412026 0.97216666 309
0.66961688 3.7063003 0.98928213 309.66669
0.53157687 3.8339453 0.9834522 292
0.67627615 3.8164713 0.97754109 267
0.83548403 3.7750998 0.96849775 305
0.6418733 3.5456879 1.1997254 301
0.36872432 3.6458709 1.1362826 263
0.50792152 3.6770179 1.1394846 169.5
0.71129358 3.7166381 1.113663 296.33334
0.83688474 3.7342463 1.0535698 307
0.37290764 3.757915 1.0665289 299
0.67867577 3.862469 1.1765345 424
0.84903479 3.7637661 1.1540203 291
0.55277479 3.9339607 1.1282818 265
0.69004059 3.9581578 1.0976985 295
0.73527694 3.5893166 1.2094899 271
0.54727978 3.6247277 1.2201197 265
0.6556977 3.6069896 1.3083146 289
0.79785687 3.6748853 1.2784851 277
