# .PCD v0.7 - Point Cloud Data file format
VERSION 0.7
FIELDS x y z intensity
SIZE 4 4 4 4
TYPE F F F F
COUNT 1 1 1 1
WIDTH 1
HEIGHT 77
VIEWPOINT 0 0 0 1 0 0 0
POINTS 77
DATA ascii
1.7042484 -5.7598734 0.11220223 302
0.94068789 -5.4466376 0.86620033 358
0.79891586 -5.3907747 0.86407936 344
0.66068774 -5.253047 0.97070551 348
0.79945755 -5.292326 0.97208154 406
0.71596289 -5.1641655 0.95866525 268
0.86620796 -5.2305331 0.96323705 394
1.0056391 -5.20328 0.95729923 238
0.82454467 -5.4365659 1.1145635 352
0.9610399 -5.4395213 1.1124765 420
0.72465646 -5.2883906 1.0955287 412
0.87108159 -5.2913928 1.0929619 420
1.0354546 -5.4434814 1.2423837 394
0.88246179 -5.4252834 1.3743112 458
1.1600705 -5.4710627 1.3804849 247
1.3001058 -5.5173225 1.3888921 482
0.9720946 -5.3163605 1.4193742 482
1.1439879 -5.26475 1.4745746 420
1.239391 -5.1353703 1.4472023 241
1.0242937 -5.3899503 1.5017148 478
1.1200001 -5.1299548 1.5782959 680
0.7258696 -5.4026737 1.7867252 488
0.58832228 -5.3638639 1.778717 245
0.73447698 -5.3700252 1.7778884 237
0.85994339 -5.2684474 1.7495422 440
1.1034206 -5.0390167 1.6887019 480
0.8148762 -4.8780937 1.7746511 261
0.70387274 -5.1586862 1.8577721 297
0.86142528 -5.1793346 1.8625785 434
0.44040525 -5.0054212 1.8178838 245
0.58028746 -4.9695849 1.8700635 252
0.71932137 -5.0737357 1.8326806 275
0.96187365 -4.9752011 1.8029706 283
0.44668028 -4.8928928 1.9146042 237
0.46045512 -4.9887691 2.0780041 708
0.98628771 -5.0667214 1.9653085 237
0.55639106 -4.878396 2.0376415 241
0.29857105 -4.8123136 2.1499631 420
0.42715585 -4.7664866 2.1287651 394
0.54665852 -4.7334795 2.1138344 404
2.5270803 5.9355249 2.9740756 422
2.4824064 5.9268684 3.129251 240
2.4832766 5.9148226 3.2847416 332.5
2.4839048 5.9021592 3.4357727 420
2.4883316 5.9002633 3.5868301 318.5
2.4635351 5.8429189 3.6992674 402
2.4947228 5.8822961 3.7243097 374
2.682725 5.9446931 3.6377134 342
2.7002034 5.9818192 3.6586213 376
2.4710784 5.8302298 3.8306203 366
2.6637897 5.8356247 3.8654087 406
2.5098977 5.9303761 3.8905673 322
2.6735673 5.9068236 3.765116 414
2.5253582 5.9414983 4.0305285 376
2.6831689 5.9035902 3.9705269 392
2.8416233 5.8669519 3.9798861 405
2.8490822 5.8485703 4.1612887 356
2.9720161 5.8133173 4.1048708 353
2.5513635 5.9782014 4.1792736 372
2.8650458 5.9128213 4.0757632 249
2.5375738 6.0124717 4.0720649 356
3.1060684 5.6526947 4.2856178 347.33334
3.0091224 5.7386999 4.2450457 231
2.4904044 5.9185815 4.3469529 274
2.6232567 5.9803009 4.3063049 376
2.5391135 6.0314379 4.264348 356
2.7018964 6.018455 4.2291656 318
3.2274399 5.4948912 4.4492993 380
3.1211362 5.5794072 4.3673978 404
2.4189982 5.7538066 4.3925395 306
2.6092334 5.970264 4.4299345 380.66669
2.7621665 5.9446454 4.4594088 252
3.2788038 5.4001479 4.5275621 392
2.6285014 5.9582663 4.5928664 376
2.7776775 5.9190445 4.6303267 366
2.6320286 5.9564748 4.7182093 356
2.8182039 5.931222 4.74228 368
