# .PCD v0.7 - Point Cloud Data file format
VERSION 0.7
FIELDS x y z intensity
SIZE 4 4 4 4
TYPE F F F F
COUNT 1 1 1 1
WIDTH 1
HEIGHT 60
VIEWPOINT 0 0 0 1 0 0 0
POINTS 60
DATA ascii
0.90073061 4.4882817 0.14536162 370
4.0389395 1.4782647 0.057921022 261
4.1254997 1.4894736 0.10488014 274
3.9202857 1.6197238 0.041123912 401
4.1159396 1.6126679 0.068051487 236.66667
4.2467432 1.7716238 0.09468624 353
4.3432808 1.8320942 0.088291943 287
4.41289 1.8700664 0.025094628 259
4.142478 1.496635 0.21349153 311
4.1120253 1.5443788 0.23094364 310
4.2625022 1.7843519 0.24040566 293
4.3159556 1.813199 0.15405969 297
4.1435533 1.552256 0.35565633 298.5
4.2094517 1.7591848 0.37738767 298
4.0923038 1.5792816 0.49590796 310
4.217 1.5196357 0.4979293 293.5
4.1341662 1.7294706 0.51525033 298.33334
4.2665634 1.7209678 0.50489593 282
4.1112556 1.5901151 0.68767923 326.33334
4.2593923 1.5334219 0.68030822 307.5
4.0294909 1.7054044 0.67194819 321
4.1124449 1.6797907 0.67626023 313
4.2315125 1.6682869 0.63653123 305
3.9368358 1.8903171 0.72037816 398
4.1054215 1.8599238 0.73113936 284
4.2147932 1.8786381 0.69236523 265
4.126236 1.6014688 0.81535089 316
4.3033419 1.5483437 0.82998455 299
4.0282669 1.7105365 0.81208122 325
4.0964594 1.7241354 0.81948721 313
4.027936 1.8790118 0.82245672 418
4.184432 1.892009 0.83800435 301
4.388092 1.4956688 1.04454 285
4.0951233 1.6053921 0.97039425 330.60001
4.2504902 1.5643404 0.97790331 309
4.0376835 1.7203827 0.9610405 329
4.1387644 1.742577 0.95877206 306.33334
4.1210389 1.8909215 0.98448801 298.5
4.0734215 1.972041 1.0369929 293
4.3206992 1.3698 1.1322358 304
4.4241891 1.4167773 1.1530547 281
4.0873194 1.5867915 1.109803 335
4.2336063 1.5634855 1.1320235 319
4.4343214 1.5317461 1.1630807 301
4.0287948 1.7217983 1.1118995 331
4.1246748 1.7093302 1.1264162 328
4.0746007 1.8654492 1.1325641 313
4.0967913 1.5842566 1.2155104 326
4.2569084 1.5831809 1.2999611 297
4.433918 1.5399808 1.2754571 299
4.1185346 1.7238325 1.2871252 312.5
4.0681634 1.860456 1.2376609 316
4.0477619 1.7412082 1.4354075 404
4.1648321 1.6985611 1.4574976 288
4.2484078 1.7026379 1.3655405 289
4.1449018 1.9007375 1.3662131 267
4.1489363 1.6379066 1.5564481 273
4.1174021 1.7248262 1.5595579 275
4.1060319 1.61305 1.650973 214
4.1043367 1.7327272 1.6671181 297
