# .PCD v0.7 - Point Cloud Data file format
VERSION 0.7
FIELDS x y z intensity
SIZE 4 4 4 4
TYPE F F F F
COUNT 1 1 1 1
WIDTH 1
HEIGHT 62
VIEWPOINT 0 0 0 1 0 0 0
POINTS 62
DATA ascii
-1.3847653 4.9408803 0.0054169297 276
4.0184655 0.55245686 0.087385111 334.66669
4.0681491 0.52506745 0.043326482 277.5
3.9729228 0.64718163 0.073333226 293.66669
4.1399126 0.64713657 0.014087528 372
4.1752353 0.78124833 0.10733154 299
4.275157 0.78149933 0.066063076 291
4.1303539 0.44646862 0.22802183 230
4.0221472 0.5399611 0.2487416 306.5
4.1033273 0.52500772 0.23121606 287
3.997479 0.63327414 0.21901189 299
4.0518222 0.64921421 0.23057541 279
4.26442 0.69006884 0.29230204 339
4.1858664 0.77313083 0.22821413 305.66669
4.3242006 0.78962362 0.22398284 310.33334
4.0215092 0.53867882 0.40070826 315
4.1707001 0.4783909 0.39449227 299.39999
4.2256451 0.58006173 0.44167539 301
4.1837101 0.65396047 0.36530265 371
4.3296795 0.70790339 0.40543401 302
4.3728876 0.68025267 0.44577479 301
4.2548499 0.77884269 0.41859812 324.66669
4.4035754 0.81402689 0.36698842 432
4.1831188 0.44512206 0.51951027 315
4.1414299 0.53200918 0.53901297 308.5
4.2618546 0.70248961 0.52566016 317
4.35818 0.67249191 0.5292927 315
4.1934662 0.7538572 0.52353388 319
4.2228622 0.44223565 0.64920259 300
4.1199546 0.53746855 0.6423282 312.5
4.2327147 0.48423645 0.69417769 305
4.1316719 0.69776559 0.66043866 315
4.236567 0.68536186 0.63893902 310.33334
4.2363939 0.79786277 0.70050722 309
4.3885798 0.82417315 0.62150776 257
4.1764011 0.42729121 0.82440513 211.5
4.10956 0.52741671 0.81854093 323.66669
4.0846033 0.67018926 0.81905019 328
4.2280688 0.81831682 0.85629553 316.33334
4.1932912 0.42177218 0.96800601 247
4.0823636 0.52564538 0.95327806 322.33334
4.1055136 0.67081571 0.9611454 320.33334
4.2535796 0.83186883 0.98956752 314
4.0392666 0.55028647 1.137112 325.66669
4.1072197 0.52481198 1.0770078 307.5
4.1056685 0.6818924 1.0966635 313
4.2729969 0.8379612 1.1276802 313
4.0240574 0.55781418 1.2557473 332.5
4.056859 0.52488124 1.3031948 347.33334
4.092124 0.69887376 1.252793 315
4.2855163 0.84056407 1.3039521 307
4.3632331 0.84438318 1.2150363 305
4.1676202 0.71403664 1.424855 338.5
4.218791 0.68730199 1.4542532 297
4.292089 0.83637655 1.4112847 241
4.1639719 0.51286137 1.5675805 376
4.2399397 0.59588569 1.5948731 303
4.1536589 0.65319979 1.5717068 279.5
4.2758875 0.67834574 1.5576491 275
4.2246256 0.58842802 1.6939542 289
4.1941376 0.73907125 1.6932386 268
4.2275286 0.66537189 1.6994636 259
