# .PCD v0.7 - Point Cloud Data file format
VERSION 0.7
FIELDS x y z intensity
SIZE 4 4 4 4
TYPE F F F F
COUNT 1 1 1 1
WIDTH 1
HEIGHT 147
VIEWPOINT 0 0 0 1 0 0 0
POINTS 147
DATA ascii
1.7910792 -1.8180234 0.11540917 313
-0.066322565 -2.4626775 0.14471194 277
0.006354481 -2.3921449 0.14910503 342
-0.33045629 -2.403285 0.1798159 245
-0.17198418 -2.4591024 0.26633456 298.80002
-0.14820798 -2.4664879 0.22189663 263
-0.35706431 -2.2857063 0.23634055 292
-0.23076238 -2.3107641 0.21979648 292.53848
-0.065025471 -2.3086371 0.23591736 329.40002
0.031911913 -2.3103912 0.24094927 314.53848
-0.32370916 -2.2152591 0.21124953 314.5
-0.26269493 -2.165612 0.25806075 314.60001
0.041937292 -2.236762 0.24098593 321
-0.17080247 -2.4871747 0.33179605 287
-0.14448863 -2.4064994 0.33200496 323
-0.37738529 -2.2903762 0.36080334 299.5
-0.18452655 -2.3072081 0.3481805 317.33334
-0.057089083 -2.2924457 0.38410345 330.41177
0.045624603 -2.3158412 0.39076319 313.22223
-0.30603033 -2.235096 0.35865393 317
-0.23663379 -2.1970656 0.35996455 319.66669
0.0010733604 -2.2423162 0.40270254 341
-0.38845405 -2.3113966 0.51013613 291.66669
-0.20923503 -2.2610915 0.54506475 329
-0.085807495 -2.2813673 0.52164316 332.46667
0.042197973 -2.2903032 0.53576672 323.66666
-0.30779228 -2.2367759 0.57232738 316
-0.23199365 -2.2178278 0.51022422 338.66666
-0.035260662 -2.2451892 0.58314598 366
-0.43162677 -2.4539042 0.62488866 418
-0.36649248 -2.3324704 0.69074792 256.5
-0.25809553 -2.2834215 0.69095862 318.5
-0.031934217 -2.2632847 0.67069662 371.66669
0.046014972 -2.3139799 0.67633235 339.85715
-0.19959638 -2.2209544 0.67730874 351.85715
-0.096961915 -2.2237272 0.70090246 381
0.076500818 -2.4364071 0.79537463 299
-0.40152875 -2.3377106 0.78018421 424
-0.27244878 -2.3036873 0.81117058 311.39999
0.041498549 -2.3387508 0.82801807 343
-0.20014858 -2.1954746 0.83053076 375
-0.071224779 -2.2004066 0.83751726 462.125
-0.40626419 -2.4221215 0.98355067 269
0.071049482 -2.4410057 0.98182559 291.83334
0.17706029 -2.4415085 0.98711681 296.33334
-0.35228667 -2.3845758 0.96906281 235
-0.24291837 -2.2951617 0.99897069 308.33334
-0.010654241 -2.2537439 0.96902192 389
0.068032637 -2.3062439 1.0028329 381.80002
0.18331099 -2.3132286 1.0145247 298.33334
-0.20270728 -2.2045867 0.95520186 337.57144
-0.062705062 -2.1995575 0.97679633 413.61539
0.1764124 -2.1672087 1.0199695 333
-0.40445077 -2.4351807 1.0996062 301.42859
-0.33896804 -2.346405 1.150825 311
-0.24106784 -2.3126266 1.1289161 303
-0.067667447 -2.2712302 1.1611756 329.5
0.071528636 -2.3404167 1.1114274 410.60001
0.19037792 -2.378921 1.1484771 474
-0.20424215 -2.2341745 1.1008152 331
-0.071838878 -2.2193451 1.1008166 378.71429
0.052847218 -2.2105565 1.1004577 391.75
0.17590159 -2.1712503 1.0790982 304
0.13464925 -2.0474174 1.0683579 268
0.22666335 -2.0950367 1.0800024 110
0.23354366 -2.7839186 1.3191092 371
-0.33910176 -2.4094684 1.3037827 256
-0.01014334 -2.4114993 1.2694598 305
0.025100708 -2.4449835 1.3449279 293
-0.3410427 -2.3627796 1.2216089 302
-0.22853567 -2.3497236 1.268539 303.75
-0.079365373 -2.3262222 1.2819724 320
0.083755337 -2.3641977 1.2448848 317.66669
-0.047942668 -2.7871292 1.4873447 251
0.0818571 -2.7663646 1.4448942 457
0.21856527 -2.7411134 1.4096779 657
0.35354853 -2.7570376 1.4161474 334
-0.30077669 -2.5711064 1.4285834 394
0.1112882 -2.6503065 1.4913968 374
0.24818897 -2.6835561 1.4745888 731
0.36102149 -2.6851087 1.4590248 484.25
-0.32678422 -2.4568777 1.42091 239
-0.25659391 -2.4857993 1.435565 224.33334
-0.37806341 -2.2935872 1.4578688 247
-0.19442104 -2.3511922 1.4174474 284
-0.077407055 -2.2952077 1.4262152 306.69232
-0.45750251 -2.2000804 1.4310343 168
-0.3941153 -2.2107821 1.484274 390
-0.040286392 -2.7706802 1.5543349 247
0.10468328 -2.7436004 1.5558113 302.66669
0.23688744 -2.7492807 1.5700663 286.39999
-0.28552654 -2.5516195 1.557376 247
-0.011793345 -2.5881424 1.5764065 364.5
0.064571418 -2.6549075 1.5659024 346.125
0.24149597 -2.658587 1.6083199 337.25
0.35027257 -2.5999017 1.5659306 278.39999
0.48137146 -2.5584357 1.5716292 236
-0.24901795 -2.4626617 1.5561302 302
0.047612865 -2.5031846 1.639294 238
0.41272801 -2.5376439 1.6260595 378
0.50333405 -2.4878972 1.5909716 271.28574
-0.35031492 -2.29006 1.5388705 355.57144
-0.26375598 -2.3409975 1.6076256 326.80002
-0.05003516 -2.3013237 1.56408 316.83334
0.03032361 -2.3727775 1.5031189 400
0.52061856 -2.3359821 1.6176653 214
-0.33846164 -2.1696258 1.5543395 193.5
-0.27770323 -2.1851764 1.618443 183
-0.10924999 -2.2327063 1.5225433 298.5
0.51323092 -2.1754863 1.6422315 174
-0.32754406 -2.0425236 1.5517381 142
-0.23032324 -2.0436227 1.6114181 187.33334
-0.20487495 -1.8947338 1.6084017 250.8
-0.12482119 -1.8527346 1.6259886 212
0.18939656 -2.7099957 1.6528776 289
0.11088034 -2.5956702 1.6687546 230
0.22742617 -2.6096444 1.6896223 267.66669
-0.1904874 -2.4284899 1.6918541 260.5
-0.086716622 -2.4354308 1.7251418 289.66669
0.10193844 -2.4645545 1.7126549 291.14288
0.23749441 -2.477114 1.7319751 289.25
0.37334695 -2.4733977 1.6831501 284.5
0.46793073 -2.4470825 1.6677818 295.75
-0.22035968 -2.3406901 1.67818 256.75
-0.070308045 -2.3099849 1.736276 224.5
0.066708125 -2.3452642 1.7538487 246.25
0.23205388 -2.3327429 1.7609569 271.81818
0.36570379 -2.3049114 1.7255214 273.60001
0.48291871 -2.2850099 1.6682669 220
-0.17434287 -2.1651886 1.7119739 212.66667
-0.073361911 -2.1730101 1.7471572 201.09091
0.068275645 -2.1644056 1.7770704 233.63637
0.22883399 -2.1690302 1.7758818 195.55556
0.3944864 -2.1901579 1.7355142 249.57144
0.49314523 -2.1646328 1.6986827 271.71429
-0.15816317 -2.0192297 1.6937094 278
-0.066410594 -2.0528238 1.7375133 174.57144
0.059328139 -2.028362 1.7603105 273.60001
0.20950064 -2.0199437 1.753222 199
0.3677237 -2.0411134 1.7197459 222.40001
0.47059911 -2.0627072 1.7001275 224
-0.029320478 -1.8714222 1.6637056 194
0.034741506 -1.8963897 1.7003109 212
0.41806328 -1.9280361 1.667708 186
0.22628646 -2.4091907 1.83418 273
0.20416282 -2.3301759 1.8205204 284.20001
0.0648375 -2.2145214 1.8037719 234
