# .PCD v0.7 - Point Cloud Data file format
VERSION 0.7
FIELDS x y z intensity
SIZE 4 4 4 4
TYPE F F F F
COUNT 1 1 1 1
WIDTH 1
HEIGHT 396
VIEWPOINT 0 0 0 1 0 0 0
POINTS 396
DATA ascii
-1.6132771 -6.5701537 0.37723792 185
0.43281084 2.244066 0.14815624 285
0.61018324 2.2749286 0.13769138 283
0.22563154 2.4243057 0.13999563 252
0.28433651 2.172647 0.2759828 243.5
0.36053059 2.2053709 0.227752 282.25
0.48855489 2.2314539 0.25988314 305.25
0.62074816 2.2056217 0.22202504 280
0.1062216 2.3505547 0.29068559 358
0.1934621 2.3742318 0.25768811 324.5
0.37410891 2.2624435 0.20241362 276.33334
0.59591043 2.2635021 0.21499893 287
0.62980115 2.3055286 0.17574862 287
0.21050127 2.4507709 0.21739127 268
0.27058226 2.1751361 0.37253389 299.77777
0.38326868 2.2128022 0.38133958 282
0.11377835 2.3878789 0.384507 257
0.19128814 2.3680589 0.39363319 297
0.40882683 2.302819 0.35081086 261
0.46887398 2.2716637 0.33108988 284
0.11124595 2.4245155 0.38162169 270
0.19303988 2.415942 0.36017367 260.60001
0.26539955 2.20837 0.52099872 281.33334
0.3784683 2.2035036 0.51696467 283.44446
0.093185924 2.3705542 0.55639553 299.66669
0.19522369 2.3679459 0.53581864 291.625
0.34750307 2.2867622 0.52386546 279
0.060559094 2.4312129 0.54504442 257
0.24909227 2.4426262 0.53878534 251
0.24573271 2.2226706 0.68530208 329.57144
0.34722987 2.2118137 0.66552639 309
-0.01279971 2.330111 0.72413141 288
0.095008992 2.3449168 0.67813718 303.14288
0.21174292 2.2964573 0.67579561 292.33334
0.39918706 2.2818542 0.67411608 288.14288
0.23414767 2.1970868 0.82365626 401.00003
0.37623549 2.2064865 0.83062458 370.39999
-0.05401592 2.3328979 0.78439313 319.5
0.065142624 2.3481452 0.80924588 310.14288
0.19905297 2.2648821 0.84357107 379
0.40792137 2.3037143 0.81556529 312
0.067479119 2.4234891 0.88387978 304
0.29158729 2.0311296 1.0277832 315
0.38062584 2.0574613 0.98010373 322.25
0.24350092 2.211694 0.97641861 418.11111
0.36777946 2.2009404 0.96017247 381.39999
0.45922208 2.2448497 0.97658938 361
0.09270715 2.325501 0.96930903 353
0.18179265 2.2736387 0.96320957 436.5
0.46835408 2.3236792 1.0291258 279
0.034775823 2.4330642 0.97143304 305
0.47551218 2.4001062 0.98821568 277
0.61558187 2.5442269 1.0256538 502
0.85293794 2.5219088 1.0057154 314
0.5711962 2.6660628 0.98871231 340
0.6781826 2.6290171 1.0020803 251.33334
0.76291937 2.6070056 1.019994 312
0.53574646 2.7230697 1.0028596 347
0.63896179 2.7077694 0.96342957 346
0.23474531 2.2081819 1.1131538 443.60001
0.37315044 2.2017717 1.1216598 447.33334
0.49154606 2.203506 1.1109915 380.5
0.96407604 2.2214222 1.1944959 225.33334
1.0646307 2.2345004 1.144085 222
0.12153152 2.2771454 1.1182423 415
0.20291173 2.2674572 1.1409969 458
0.46881148 2.3360543 1.0949322 305
0.8694554 2.3889349 1.1504862 259
0.97054189 2.3698368 1.1329783 232.5
0.03769286 2.4463773 1.1254506 381.66669
0.69888306 2.5427952 1.1272545 328
0.81351703 2.4886789 1.1243247 289.11111
0.92913306 2.4192584 1.0968571 304
0.5703758 2.6590104 1.1264093 350.66669
0.66459209 2.6363056 1.1198964 317.71429
0.76989508 2.600714 1.1457729 333
0.43525958 2.7338743 1.0781323 340
1.0117707 2.0940101 1.3273571 194
0.2268049 2.236985 1.2728004 385.39999
0.36124176 2.2039936 1.2602348 386.66669
0.4764834 2.2059135 1.230208 333
0.88954711 2.1565843 1.2835429 164
0.96425056 2.1585686 1.2790473 212
0.12865946 2.3156037 1.255404 350
0.20412634 2.3463929 1.2626753 315
0.34207854 2.2641468 1.2956136 347.66669
0.46388012 2.291647 1.2032136 323
0.85240644 2.3173702 1.2841872 202.8
0.95149481 2.3140154 1.2770529 222
0.70308781 2.4940667 1.2720618 335.75
0.83594459 2.4721074 1.2770649 316.57144
-0.054039478 2.6169567 1.3494679 324
0.042191982 2.6264424 1.3101165 338.33334
0.57077724 2.6098423 1.2864866 355.5
0.64975548 2.5794234 1.2764053 326
0.77161324 2.5671637 1.2400697 370
0.86543703 2.0317974 1.4191257 260.66666
0.97402191 2.0391881 1.4204246 294
0.21777368 2.205277 1.4091041 345.33334
0.33453262 2.2311633 1.4453512 322
0.83060902 2.1797409 1.4419136 237.66667
0.96262157 2.1871724 1.4196098 242.66667
0.27870175 2.3031421 1.4525342 330.5
0.32231763 2.3182137 1.4297142 297
0.46849763 2.3679962 1.4197799 336
0.68107587 2.368443 1.47276 225.2
0.81948584 2.3166142 1.4287713 252.36365
-0.051957589 2.5095594 1.4664199 310.66669
0.062943712 2.5222964 1.4622186 266
0.27058548 2.5025425 1.4528567 395
0.41516793 2.530694 1.4938859 334
0.53090572 2.508394 1.4702922 336.80002
0.66555649 2.46908 1.4143438 315.45456
0.78804457 2.4491038 1.3987432 317.5
-0.067317024 2.5749664 1.4046397 303
0.064201377 2.569845 1.4192947 338
0.18319741 2.5836172 1.4356836 343.33334
0.41725039 2.5550382 1.4381443 356
0.52457237 2.5669694 1.4133302 355.42859
0.61744177 2.5831013 1.3813491 338
0.68080264 1.8872629 1.6142973 336.72729
0.77843243 1.9213194 1.5663606 293
0.90476787 1.9401164 1.5363132 332
0.69021559 2.0189559 1.6237907 310.36365
0.78670114 2.0375581 1.5702374 235.42859
0.92082912 2.0080252 1.509618 285
0.11244559 2.1693938 1.606603 40
0.22266571 2.203898 1.5435493 319.25
0.33178523 2.2063279 1.514396 344
0.5217011 2.2154086 1.6426529 169
0.69291234 2.1665776 1.5938466 292
0.79142314 2.1729186 1.5490558 206.40001
-0.023943447 2.3327971 1.605109 224.5
0.085300535 2.3560061 1.568153 214.77779
0.20069976 2.2859602 1.5482246 282.375
0.33310848 2.2907491 1.5580673 288.5
0.52074254 2.3239698 1.6216328 250.5
0.66089094 2.3016346 1.5660909 265.45456
0.76755828 2.3125262 1.5431633 278.39999
-0.047104634 2.4390938 1.5413301 280
0.062847704 2.5029895 1.5235138 306
0.15371948 2.4881787 1.5161273 320
0.40203986 2.4719024 1.57344 318
0.52902526 2.4454274 1.5547656 310.20001
0.60176772 2.4820945 1.5364139 268
0.5568819 1.8730018 1.662474 250
0.61353695 1.9153479 1.656759 300
0.025607377 2.0990756 1.7337739 400
0.26428849 2.0101867 1.7179024 171
0.33766851 2.086812 1.6853814 124
0.55058944 2.03632 1.6859046 226.25
0.63121957 2.0327423 1.6585206 281.60001
0.057639301 2.1106765 1.7028501 200
0.22974159 2.1910794 1.6787817 147
0.40110624 2.1667767 1.6908659 141.66667
0.51090807 2.1678448 1.6787041 211.5
0.61750531 2.1442037 1.6554279 264.66669
0.24335629 2.3073592 1.6839651 226.66667
0.3813051 2.3129845 1.6745315 195
2.1105957 0.31564853 0.13352056 432
2.018229 0.56356531 0.1394068 406
2.2303567 0.56510222 0.13961279 301
2.1274548 0.63187361 0.11510873 295
2.3415809 0.71499455 0.12517938 796
2.0412757 0.14166832 0.26705706 649.66669
1.9985529 0.22905378 0.25911599 721.90912
2.1493492 0.28431368 0.15217763 311
2.3093035 0.27932051 0.19730116 281
2.0311391 0.36106268 0.26128048 578.35297
2.1284683 0.33155665 0.19176137 405
1.8966801 0.50080347 0.27293223 700
2.0122113 0.52096283 0.23196489 521.3913
2.1641808 0.55147868 0.19423881 395
2.0188339 0.61631471 0.27237386 641.79999
2.2217674 0.69650483 0.22646487 301
2.1531408 0.14607634 0.32237011 303
1.9932379 0.22714397 0.37418228 759.66669
2.0073919 0.36425692 0.37517968 727.77277
2.155828 0.44761944 0.37694544 280
1.9094771 0.51149815 0.37593839 748
2.0214691 0.48596999 0.3767204 723.66669
2.0212035 0.61700571 0.37874302 674.25
1.9440248 0.29471505 0.51701552 912.5
2.0068421 0.22836244 0.52187753 768.5
1.9379017 0.36218533 0.53741187 923.66669
1.9981005 0.37743604 0.52083862 839
1.9081081 0.51322067 0.51901382 856.69232
2.0081511 0.50607359 0.5337196 821.53339
1.9452554 0.60189176 0.54729891 819
1.9900932 0.60967052 0.51115215 736.33337
1.8909467 0.14920232 0.72750652 359
1.7850685 0.17527108 0.68431687 956
1.8984861 0.23061568 0.68041748 719.30774
2.0043399 0.23408352 0.67419159 646.07697
2.1097 0.17388459 0.68489188 445
1.9191475 0.37192318 0.6956591 865.88892
1.9994819 0.38661116 0.66553313 794.83337
1.9205989 0.48404667 0.66394627 834
2.0076523 0.53670263 0.68631458 723.16669
2.0681312 0.60552549 0.74485105 435
1.8641342 0.12915671 0.77592039 411.66669
1.8732138 0.22213772 0.81554711 612.45459
2.0131426 0.15400466 0.89218128 257
1.8904784 0.36919463 0.83618879 829.25
1.9829928 0.38438988 0.8186875 829
1.9286528 0.46214297 0.84100121 690
2.0014131 0.51669306 0.82737696 629.40002
2.0842762 0.60808939 0.7970506 379
1.920545 0.12001275 0.92738605 379
2.05691 0.079977624 0.97878689 326.39999
2.1290431 0.083197154 0.97482491 285
1.8990499 0.24311183 0.97576141 650.17645
2.0148973 0.21499157 0.97787267 445.80002
1.8777916 0.37444443 0.97374499 698.64703
1.9674392 0.37950099 0.98076409 667.66669
1.9093243 0.50883925 0.99817264 525.22223
2.0783346 0.56094462 0.93953931 537
2.1581504 0.5875119 1.0172985 313
1.9048896 0.6046406 1.0298432 369
2.0667007 0.63673353 1.0438788 308.33334
1.9392948 0.085353412 1.199585 537
2.0303686 0.093561128 1.1395135 474.125
2.1595004 0.095471889 1.0993015 340.83334
2.2506237 0.065032504 1.1683133 350
1.8835518 0.24167997 1.116899 609.16669
2.0417566 0.21203004 1.1181121 507.28574
2.1567016 0.17890905 1.148483 491
2.2731707 0.19842179 1.1305236 305
1.8828098 0.37834242 1.1190236 552.88239
1.9850417 0.37067726 1.1407318 535.25
1.7496179 0.51495224 1.1174278 394.125
1.8820717 0.52686912 1.1200572 394.30002
2.0167739 0.55259806 1.13468 475.88889
2.1154292 0.5759868 1.0527658 447
2.0139146 0.67041945 1.0625479 325
2.1757853 0.62072945 1.1306914 251
1.946905 0.08377178 1.2393661 379
2.0426707 0.10227564 1.27659 381.08334
2.1313353 0.14732172 1.3391898 366
1.9110416 0.23853341 1.259835 426.14288
2.0246384 0.22761643 1.2797362 445.36365
2.1221504 0.20811526 1.297163 367
1.9098969 0.37609491 1.2371722 457.33334
2.0300117 0.36722907 1.3047315 410
2.1027522 0.38274369 1.3032722 519
1.9184544 0.5000658 1.2472683 397.5
2.0106862 0.522084 1.265349 417.5
1.9071505 0.25444204 1.3875722 444
1.9779701 0.26879817 1.3706831 375
2.1687267 0.19683129 1.3807895 341.5
1.9455428 0.33142269 1.433874 409.66669
2.0036066 0.36521962 1.4123979 402.17648
2.115778 0.43608409 1.4309362 271
2.0616162 0.46674445 1.3877833 303
1.7777035 2.2309995 0.098953635 318.5
1.9402578 2.221616 0.092717573 328.33334
1.9930214 2.2261353 0.10213159 277.33334
1.7946494 2.3650856 0.12384954 291
1.9163582 2.3148546 0.071315102 312.66669
2.0016887 2.3053188 0.1143404 317.39999
1.7649709 2.1994238 0.22371943 323.22223
1.8084171 2.2100599 0.16799265 314.33334
1.9743445 2.2058909 0.23707646 346.5
1.7746651 2.3229189 0.17090106 310
1.9010444 2.3124681 0.2252994 319
2.012902 2.2925451 0.23615539 323.57144
2.1457682 2.303144 0.27062899 321.5
1.7866991 2.0602343 0.39492366 335
1.8574452 2.0964541 0.44486722 333
1.768608 2.1627007 0.3671881 323.44446
1.8629153 2.1229684 0.36401886 315.66669
2.0090721 2.2077549 0.37583265 325.20001
2.107446 2.2470155 0.39608732 301
1.7738206 2.28843 0.32869917 253.5
1.9735153 2.3134732 0.3474521 317
2.1590815 2.304481 0.37016201 285
1.7787019 2.055903 0.5217222 383
1.8400722 2.0698454 0.52381885 363.5
1.7760283 2.1524599 0.52858412 330.5
2.0459409 2.1841006 0.51371002 337.5
1.7880989 2.0532491 0.65248549 393.80002
1.8769004 2.0483346 0.68592525 355.85715
1.7753385 2.1445379 0.6743778 350.33334
1.8859409 2.1006155 0.67411351 401
2.0537467 2.1655955 0.6582827 345.5
2.1702166 2.2176416 0.66934282 278
1.7891202 2.2576191 0.68762898 174
1.7645879 2.0476751 0.81452584 468
1.8773193 2.0410128 0.8186456 387.00003
2.0306621 2.0748949 0.84302658 372
1.7769593 2.1534543 0.84393597 369
1.8456504 2.1220655 0.83388627 374
2.0460351 2.1181092 0.75020295 327
2.1170964 2.1592228 0.76064944 337
2.2767603 2.2089469 0.85113192 313.66669
1.8398188 2.3146739 0.83066857 331
1.7710538 2.0613246 0.97833675 408
1.8828871 2.0238531 0.96619767 409.85715
2.0305288 2.0692081 0.96768522 389.66669
1.7863396 2.1670241 0.95864004 467.66669
1.8436493 2.1435611 0.99197769 435.39999
2.0583477 2.1018617 1.0247383 369
2.242379 2.1879845 0.91784263 311
1.8143885 2.2590275 0.95701611 411
2.2974524 2.2743294 0.9377687 249
1.741287 2.0146854 1.1282805 395
1.8703941 2.0364199 1.1211487 409
2.0450857 2.0854256 1.0907024 317
1.7556618 2.1552396 1.1477802 391.39999
1.8152776 2.1797719 1.0796003 496
2.0922499 2.1383426 1.146836 316
1.8764859 1.7960137 1.3157917 501
1.7819121 1.8791337 1.2887828 381
1.8550265 1.8799877 1.28679 415
1.7777824 2.0338025 1.2662249 394.20001
1.8846197 2.0091772 1.2692642 370.5
1.9506346 2.0839565 1.2167115 347
1.7473556 2.1364651 1.265063 469
2.1661332 2.2121232 1.2141243 309
1.8165113 1.8591312 1.3838441 329
1.8485682 2.0048466 1.4414791 311.5
1.7903852 2.1954515 1.360992 340
1.9020698 2.1960237 1.4543335 296.33334
2.0917587 2.150245 1.4818174 311
1.9860613 2.2520289 1.4177898 243
1.9252319 2.086463 1.6232569 437
1.9748949 2.042021 1.5541112 408
2.1350949 2.0892699 1.6147928 239
1.8801416 2.1557145 1.5047828 370
2.015022 2.1357305 1.5576074 326.39999
2.2250924 2.2136745 1.6099565 347.5
1.9845095 2.2701838 1.6060376 259
2.0100982 2.1608677 1.7022078 302.20001
2.1797786 2.1795182 1.6595212 275
2.0151999 2.2966452 1.6599325 277
2.9897449 1.0047373 0.0037464201 327
3.0432835 1.0019042 0.091284066 327
3.1202056 1.0774155 0.1297074 257
3.1267996 1.2824785 0.037426263 319
3.1741536 1.2786359 0.074300826 298.22223
3.1466269 1.3530244 0.1234791 404
3.204087 1.4151858 0.082162157 312.33334
3.1255553 1.0884839 0.22555941 247
3.208154 1.1324188 0.20864025 261
3.1214733 1.2869443 0.1979284 404.66669
3.1804659 1.2736071 0.20058441 337.60001
3.1426742 1.3618371 0.24346821 292.66669
3.179188 1.3911784 0.18523547 410
3.1125233 1.1057897 0.36918879 369
3.1878805 1.1121397 0.38774773 310.66669
3.1218598 1.2771643 0.38267565 281.60001
3.1798582 1.2835543 0.37105054 269
3.1440949 1.3650557 0.31359485 251
3.1589985 1.3717829 0.37216598 294.25
3.1417329 1.107445 0.48883635 414
3.178766 1.1335353 0.53065103 280.80002
3.1208844 1.2827311 0.52635264 251.66667
3.1747961 1.2104216 0.52616966 247
3.1164393 1.3625458 0.52904516 247
3.1028123 1.1401057 0.68989313 333.66669
3.1976542 1.1242619 0.64492524 246
2.8689077 1.2519315 0.70756835 332
3.0924242 1.2649347 0.66049802 256
3.1583083 1.2079521 0.62744653 253
3.0857174 1.3521641 0.62907887 247
3.1226974 1.0305465 0.8307628 2317
2.9708383 1.1176929 0.84364718 2617
3.0669088 1.1061708 0.77618682 904.14288
2.9391897 1.2435668 0.83251286 1376.3334
3.0068009 1.2278924 0.75611472 385
3.1215467 1.0442746 0.98291016 393
3.1791255 1.025299 0.96663094 336
2.9822049 1.1516972 1.0038553 484
3.0373886 1.1136246 0.96038234 435
3.1594474 1.0628798 0.91416395 393
2.9492145 1.2505028 0.99127561 426.71429
3.0078535 1.2952492 0.94667381 335
2.984802 1.403627 0.99250257 315
2.9640422 1.0461395 1.1769012 2445
3.1151557 1.008373 1.1077733 1685.6667
3.1846333 0.97149587 1.0677278 325
2.9516826 1.1514591 1.1482 2331
3.0687654 1.120712 1.0953178 371
3.1688066 1.0544546 1.1116118 405
2.9612186 1.242337 1.1233712 416
3.0109348 1.3347814 1.1465145 315
3.0729628 1.3577213 1.1636058 279
3.1347778 1.0350541 1.2205958 1727
3.2822704 1.0098245 1.2571361 309
3.0847292 1.1234781 1.276718 340.5
3.1854501 1.0671997 1.2375119 329
3.0540986 1.2591257 1.2531059 321.33334
2.9661062 1.0333192 1.401947 351
2.9851596 1.1220745 1.4974203 290
3.07952 1.1067187 1.4106665 295.33334
2.9745307 1.027527 1.5522442 329
