# .PCD v0.7 - Point Cloud Data file format
VERSION 0.7
FIELDS x y z intensity
SIZE 4 4 4 4
TYPE F F F F
COUNT 1 1 1 1
WIDTH 1
HEIGHT 120
VIEWPOINT 0 0 0 1 0 0 0
POINTS 120
DATA ascii
0.89632303 -6.8947163 0.09348847 195
1.1846356 1.0415888 0.25484207 321
1.2007182 1.0394503 0.27988589 317
1.4688896 1.0081217 0.24906935 303.44446
1.5601178 1.0183554 0.22680789 288.80954
1.6688155 1.0370356 0.18134347 362.5
1.1825328 1.0594479 0.27143425 321
1.2639128 1.1009932 0.24428824 303.34616
1.4104153 1.0974711 0.24957043 313.75
1.547851 1.0885504 0.20240068 303.80002
1.1855106 1.0193226 0.4103398 312
1.2324333 1.0391998 0.38099283 315.88889
1.4548113 0.9901396 0.37834495 302.25
1.5182776 0.96722877 0.35016543 296
1.2579466 1.1012089 0.37524939 309.44446
1.4171237 1.0945532 0.36293009 305.57144
1.5093952 1.1101315 0.370085 283
1.1851828 1.0232481 0.51656353 315.80002
1.2523023 1.0280354 0.52361381 310.66669
1.4213532 0.96784437 0.52567422 310.39395
1.543867 0.96772611 0.51728505 298.5
1.1791633 1.1088545 0.55003655 311
1.2574234 1.0952487 0.52653593 316
1.3928436 1.0782025 0.52904272 295.66669
1.2805629 1.2499571 0.54714215 283
1.2983049 0.85769331 0.69764566 500.25
1.3862158 0.89278543 0.72965664 581
1.1715266 0.99441743 0.71158195 776.55554
1.2794091 0.9818399 0.68345368 540.76001
1.4196392 0.97892743 0.65836233 301.95239
1.5345891 0.94892067 0.60839492 426
1.1394401 1.1221054 0.69106734 459.21429
1.2459865 1.1151572 0.66390198 315.13336
1.3624529 1.0540726 0.6277169 301
1.1820805 1.2031218 0.68275088 283
1.265022 1.2258151 0.64341289 304.33334
1.1692376 0.89354175 0.83948874 3175
1.2901142 0.87249589 0.8129667 2270.4668
1.3756716 0.86879617 0.82456636 420
1.1623943 0.97618002 0.81729984 2361.7
1.257005 0.95254236 0.81333935 910.61908
1.4213879 0.9268595 0.8373028 506
1.1595248 1.1136692 0.82112026 770
1.222577 1.0888321 0.81661588 947
1.142732 1.2167752 0.85696149 301
1.204905 1.23317 0.85236764 308
1.3356322 0.89155567 0.98037148 563.57147
1.4158679 0.87385356 0.97699928 616.27777
1.184152 1.0115039 0.97347271 712
1.2610422 0.95475817 0.97656792 658.45001
1.3897992 0.9076041 1.0123075 755
1.5737885 0.92170089 1.0211385 297
1.1581 1.1163391 0.96951795 661.69568
1.2033765 1.0979904 0.9729054 553
1.1743972 1.2169969 0.93578094 477
1.240827 1.2816901 0.91425312 259
1.3275275 0.887465 1.1087619 1085
1.4049404 0.88094461 1.1180832 614.73334
1.525039 0.89223784 1.1450332 296
1.1697655 1.0189549 1.1294543 1630.6666
1.2671448 0.95871407 1.1242564 870.31824
1.4234377 0.90893459 1.1539121 498
1.5840005 0.93279904 1.1452972 261
1.1646525 1.0973294 1.119225 791.82355
1.2035241 1.0613693 1.0884252 642
1.1864048 1.2380819 1.0501566 404
1.4020609 0.8855406 1.2062622 557
1.2843704 0.98043126 1.2419971 473.41669
1.406904 0.94712812 1.2586195 396
1.5224235 0.93919283 1.2384819 303
1.1694877 1.0926778 1.2249103 541.5
1.2265136 1.0940703 1.2604141 373.875
5.3868966 -5.9152951 0.77725863 275
5.4961252 -5.9486771 0.78098953 269
5.5177703 -5.7540202 0.77019715 255
5.5566177 -5.7116528 0.76849198 285
5.7884369 -5.4517627 0.75861132 390
5.8614202 -5.4244466 0.7586621 247
5.3697143 -5.9027381 0.94154549 271
5.4957781 -5.9279156 0.94723213 283
5.4788308 -5.7184896 0.93137991 342
5.5170026 -5.6497011 0.92763698 308
5.6994276 -5.6408815 0.93306899 277
5.7207503 -5.5689306 0.92872548 279
5.8363757 -5.506278 0.92841089 269
5.8866487 -5.4308515 0.92503858 275
5.3695598 -5.9096017 1.1140321 257
5.5033464 -5.9159417 1.1205981 277
5.4079795 -5.6475301 1.0921659 286
5.6209564 -5.6530647 1.1027919 268
5.7367568 -5.5664077 1.100945 281
5.3386922 -5.880578 1.2878529 422
5.4704428 -5.8581281 1.2933098 404
5.5256262 -5.7835817 1.2887354 281
5.6301985 -5.6564989 1.281984 271
5.7518029 -5.5626259 1.2801906 263
5.8318558 -5.5154366 1.2807331 273
5.8917317 -5.3991394 1.2731595 283
5.3528352 -5.9035087 1.4751738 269
5.5293322 -5.903513 1.4884657 261
5.5089827 -5.7717514 1.4705223 245
5.5860386 -5.6648979 1.4634486 265
5.7482638 -5.5398517 1.4615589 273
5.8588448 -5.5487266 1.4718158 275
5.9083323 -5.3965411 1.4582585 255
5.7573919 -5.5298009 1.6493224 277
5.8914709 -5.3618531 1.6404346 258
5.3462915 -5.9341302 1.6673503 294.5
5.5250587 -5.8777122 1.6754748 275
5.5104628 -5.7797003 1.660167 259
5.6322327 -5.6454296 1.652921 261
5.8255296 -5.5219831 1.655095 257
5.3606758 -5.9432573 1.8637519 267
5.5384412 -5.8715248 1.8711449 273
5.5045714 -5.7793508 1.852614 247
5.6347213 -5.6409936 1.8452241 260
5.7916164 -5.519454 1.8445439 264
5.5162325 -5.7982044 2.0546639 261
5.6577778 -5.6361313 2.0442023 263
5.7694721 -5.4905787 2.0339327 235.5
