# .PCD v0.7 - Point Cloud Data file format
VERSION 0.7
FIELDS x y z intensity
SIZE 4 4 4 4
TYPE F F F F
COUNT 1 1 1 1
WIDTH 1
HEIGHT 63
VIEWPOINT 0 0 0 1 0 0 0
POINTS 63
DATA ascii
4.5979414 -2.5937972 0.099958211 381
4.113482 3.3185146 0.013798475 374
4.2089996 3.3910816 0.072735816 424
3.9913597 3.5326009 0.048814073 316
4.1212063 3.5226622 0.041550204 274
3.9572477 3.6901059 0.04728017 290.5
4.0617061 3.6288555 0.042544395 256
3.8857095 3.7806389 0.015368223 277
3.908653 3.8110392 0.08099702 245
4.1351066 3.3125196 0.19111431 348
3.874192 3.5938694 0.23961979 364
3.9960942 3.5468016 0.19556352 343
4.086792 3.4757106 0.15228681 292
3.9266136 3.6570461 0.18447408 227.33334
3.845521 3.7538567 0.20046562 357
4.117732 3.2772965 0.36227998 369
4.0622783 3.4214675 0.41207379 306
3.8429263 3.5706124 0.37176847 385
3.9875302 3.5278482 0.38449711 342.66669
3.8183868 3.7338045 0.32862413 266
3.9419043 3.663532 0.32511705 316
3.8505261 3.7729747 0.42279214 246
4.1203728 3.2639232 0.50470996 376
4.053503 3.4026475 0.50930375 352
3.8554754 3.5906806 0.51524734 372
3.9802618 3.5214655 0.51332223 337
3.8140213 3.7396088 0.52106965 378
4.1061525 3.2360218 0.65836638 367
4.0461602 3.3850231 0.61137366 370
4.0697989 3.3950324 0.72036052 424
3.8535128 3.5934958 0.61823326 350
4.0031528 3.5229797 0.65393615 314
3.8475385 3.6849041 0.67749965 321.5
3.8348911 3.7713265 0.7376405 289
4.1454082 3.2529531 0.82564342 303
4.078866 3.3918383 0.83280754 301
3.7919121 3.5406387 0.8298974 2897
4.0028219 3.5877151 0.8447175 422
4.0829692 3.5525234 0.84605539 289
3.7329922 3.6679924 0.83799756 2121
4.0478463 3.1604245 0.92556417 2821
3.9988892 3.309459 0.93588996 1855
3.9945641 3.5212536 0.95612669 740
4.1244135 3.4979727 0.9629972 239
3.8424373 3.6908712 0.96300477 311
4.1554699 3.233943 1.1207708 312
4.1060557 3.3872468 1.1335857 303
4.0902843 3.5352895 1.0870256 273
3.8842976 3.6420829 1.081828 313
4.0088959 3.6022308 1.0876499 303
3.8271983 3.7764897 1.0933353 295
4.1780829 3.2360754 1.3099991 319
4.150928 3.4092464 1.3308171 305
3.9381218 3.5572939 1.2627672 213.5
4.098031 3.5242386 1.2765059 278
3.8711586 3.6329393 1.203231 555
4.0379691 3.6344457 1.2203227 257
3.8328032 3.7886529 1.2851276 289
4.1946559 3.2385781 1.4410107 253
3.9609127 3.3803699 1.4291959 263
4.1333494 3.3820643 1.4543903 271
4.1484737 3.1893702 1.5550965 418
4.0760345 3.3203132 1.5655867 283
