# .PCD v0.7 - Point Cloud Data file format
VERSION 0.7
FIELDS x y z intensity
SIZE 4 4 4 4
TYPE F F F F
COUNT 1 1 1 1
WIDTH 1
HEIGHT 60
VIEWPOINT 0 0 0 1 0 0 0
POINTS 60
DATA ascii
8.5650473 1.0709604 0.087928385 354
2.7437413 3.5865688 0.039269298 180
2.7965746 3.6456821 0.11342731 294
3.2995372 3.7105608 0.11492868 352
3.1172554 3.833915 0.12154157 338
3.1505153 3.872195 0.056807429 360
3.1455157 3.91939 0.055564344 263
3.1676342 3.9370713 0.11671728 277
3.0516524 3.5548282 0.23121975 329
2.7958064 3.6205213 0.24044473 337
3.286782 3.6775699 0.22171485 280
3.0872226 3.8057795 0.22860962 325.5
3.0487652 3.5613861 0.38343704 366
3.2267835 3.575151 0.42298636 308
2.8352163 3.6516898 0.38942313 328
3.2416739 3.6050823 0.3390044 296
2.9174681 3.7718713 0.4323476 312
3.064743 3.7681041 0.3877756 305
3.0342231 3.5498261 0.5106535 360
3.1853023 3.5131576 0.50924844 348
2.8757577 3.7035561 0.51771224 332
3.0351448 3.7222204 0.51842868 311
3.0712829 3.5414588 0.66573399 330.66669
3.178962 3.4875436 0.6480301 359
2.8893211 3.7062194 0.6418311 354
3.0278196 3.7059894 0.66030419 341.75
2.8973691 3.7573752 0.71036613 299
3.1188166 3.3855448 0.88589132 2329
2.9931173 3.5096262 0.79096603 1419
3.1448305 3.5138183 0.79751986 277
3.1838934 3.4751866 0.79559362 303
2.8349411 3.6722991 0.8008883 2557
2.9394588 3.6860065 0.80593961 1339
3.0529032 3.6779957 0.80937237 305
2.839134 4.026473 0.83648556 356
2.9990158 3.5934968 0.90260196 1097
3.0832524 3.5500846 0.95561719 290
3.1887999 3.4563284 1.0045552 293
2.9210737 3.6990218 0.96497369 724.5
3.0333719 3.6663225 0.96670806 307
2.8959301 3.7676749 1.0262257 305
2.8735592 4.0641789 0.95201755 283
3.1765075 3.429399 1.1088916 305
3.0142281 3.5866561 1.1185504 317
3.1506963 3.5324249 1.1218108 285
2.9120145 3.6861901 1.1258527 1194.3334
3.0776322 3.6300597 1.1303166 299
2.8179722 3.9454329 1.1600325 309
2.8545518 4.0183115 1.0586374 307
3.1725922 3.4123654 1.2170014 319
3.2114811 3.5276494 1.2977834 256
2.8957667 3.6213894 1.2253588 2341
3.0691624 3.6335514 1.2438002 306
2.7745359 3.8623807 1.2578424 1211
2.9450366 3.845772 1.2693979 285
3.0474005 3.7963943 1.2699375 289
2.9685056 3.7072823 1.3631835 298
3.0564673 3.8123965 1.3931338 275
3.0470011 3.8029244 1.511263 237
3.2249937 3.8184173 1.5367961 273
