# .PCD v0.7 - Point Cloud Data file format
VERSION 0.7
FIELDS x y z intensity
SIZE 4 4 4 4
TYPE F F F F
COUNT 1 1 1 1
WIDTH 1
HEIGHT 76
VIEWPOINT 0 0 0 1 0 0 0
POINTS 76
DATA ascii
2.3434684 -6.1788778 0.057902507 356.5
1.8920368 0.85790312 0.13423914 287
1.9690289 0.85915709 0.14520578 275
1.8106426 0.92851228 0.14022291 299
1.7795439 0.85582113 0.24811473 294.66669
1.8772311 0.85095441 0.22126311 286.18182
1.9613366 0.84134889 0.18154077 280.33334
1.4617645 0.99369615 0.25828534 326.54547
1.5195444 0.98789114 0.22241515 299.78949
1.7565998 0.91062587 0.23462252 289.66669
1.820565 0.92577374 0.20639469 283.85715
1.4914356 1.0696834 0.20200785 288.20001
1.5156585 1.0830761 0.20532788 289
1.7370758 0.8333196 0.38092288 311.80002
1.8271328 0.82614177 0.35981858 305.73685
1.4609582 0.97840512 0.36277539 319.60001
1.5469004 0.97818494 0.38078332 310.33334
1.6677709 0.98662674 0.37546808 294.5
1.5581551 1.0500045 0.4339228 299
1.7541759 0.73179853 0.57492888 341
1.8639694 0.74619365 0.54722416 324
1.6032145 0.89787078 0.5343709 309
1.7392906 0.81825024 0.53177899 314.2381
1.8284442 0.78085965 0.51326704 317
1.5638226 0.96742672 0.51721185 311.75998
1.7682257 0.95551872 0.55352771 298.33334
1.5658429 1.0606633 0.53589517 298
1.6246572 0.74513429 0.67569768 625
1.7293314 0.7337507 0.6928103 487.85718
1.592263 0.83516926 0.70784831 633.66669
1.7228172 0.83308285 0.65928847 321.66669
1.4415705 1.031404 0.69902706 508.33334
1.5956544 0.95183873 0.6702792 379
1.4700336 1.0956917 0.70115775 349.5
1.5578558 1.0892165 0.66975284 289.66669
1.6189116 0.73027486 0.82398796 2658.6001
1.7018703 0.71767902 0.83825701 946.91669
1.49705 0.81949508 0.8421647 3404.3335
1.5772485 0.80495054 0.80908728 1780.8621
1.720513 0.75372845 0.82043272 1039
1.465605 1.035455 0.79245961 469
1.5503548 0.95201367 0.83246559 1167.0715
1.5578244 1.0716491 0.80592132 331
1.9418412 0.26092628 1.0065739 361
1.9971766 0.25692222 1.0050423 359
1.8976305 0.3653084 1.0036633 468.5
1.9986763 0.3464784 1.0119401 304.5
1.855914 0.54224581 1.0246565 621.5
1.9661324 0.5842216 1.0027641 275
1.6262197 0.7387197 0.99527305 763
1.6885259 0.71677643 0.98391092 621.71429
1.9218181 0.64108801 1.0414529 287
1.5868846 0.8207044 0.97852492 594.80646
1.6571908 0.77273303 0.99367404 732
1.5616021 0.97649038 0.98081368 629.08698
1.498664 1.0548353 0.90863788 473
1.549621 1.0716171 0.98336065 379
1.977643 0.41099125 1.0772156 315
1.8589127 0.53905046 1.0777323 595.75
2.0006807 0.52580273 1.0541006 249
1.6262292 0.72061241 1.1158878 1673.25
1.7343742 0.67894208 1.1228021 976.91309
1.8389206 0.65869772 1.1038288 540.5
1.582106 0.83012336 1.1302602 759.78577
1.6629605 0.78062201 1.1338339 561
1.4925096 0.94526505 1.1317132 1287
1.5511178 0.95917332 1.1162452 680.57898
1.6129913 0.73457408 1.3349856 397.66669
1.7228706 0.71305251 1.2374327 434.90912
1.891173 0.6669023 1.2466607 293
1.6066527 0.81390989 1.2845529 368.19998
1.6795154 0.78839189 1.2723 432.42859
1.5618657 0.98450792 1.2685143 349.5
1.6836594 0.96742266 1.3080251 283.85715
1.6827059 0.73379481 1.3825734 314.5
1.6369009 0.83928859 1.405176 303
