# .PCD v0.7 - Point Cloud Data file format
VERSION 0.7
FIELDS x y z intensity
SIZE 4 4 4 4
TYPE F F F F
COUNT 1 1 1 1
WIDTH 1
HEIGHT 69
VIEWPOINT 0 0 0 1 0 0 0
POINTS 69
DATA ascii
0.069474697 -5.7793508 1.186388 396
2.1976655 0.99702758 0.12508242 427.39999
2.3117909 0.99045855 0.11189104 322.25
2.4715719 0.96727818 0.14994273 288
2.528677 1.2472326 0.11320671 340
2.6047289 1.2851996 0.1318742 271
2.2184677 0.99118555 0.16993821 481
2.2991743 0.98843193 0.18091345 366.66669
2.4807453 1.0190567 0.23137182 260.09091
2.562788 1.0207223 0.23990083 271
2.3467293 1.0668591 0.20961238 292.5
2.4376225 1.0962213 0.2821002 277
2.6097009 1.2486001 0.22016186 266
2.6222889 1.0084163 0.36679381 254.11111
2.4698441 1.0505978 0.32218325 255
2.6139281 1.1271362 0.37956223 289.55557
2.6408014 1.2507882 0.37774244 280
2.6265087 0.99757653 0.53366792 268.55557
2.7038708 0.99472362 0.46926194 251
2.5349939 1.1687241 0.57884115 299
2.6214213 1.1262605 0.52119297 271.33334
2.5312152 1.2719884 0.58446807 382
2.6180658 1.2550619 0.52328366 270.71429
2.6157775 1.3647226 0.59593558 378
2.5308897 0.81235248 0.6728574 423
2.6192713 0.84563875 0.67136401 351.75
2.4680104 0.99121457 0.69966489 549.60004
2.6060419 0.99491739 0.65333021 274.33334
2.718209 0.98623782 0.67495126 271
2.4559829 1.1280955 0.68053102 425.61539
2.5794225 1.1384854 0.63931 271
2.4938779 1.2728719 0.68041509 349
2.6183114 1.3826647 0.68072855 324.33334
2.6016629 0.84653825 0.80429184 355
2.3944621 1.0313538 0.84551895 3561
2.4525182 0.97868884 0.82065976 1728.8
2.6247888 0.93645829 0.83589149 330
2.3788266 1.1010563 0.85028625 3199
2.4217596 1.1302767 0.82047915 1414.6667
2.4892395 1.257893 0.83715993 353.39999
2.5604901 1.3416721 0.84352982 363
2.5947337 1.3723695 0.78540981 311
2.490221 0.87832296 0.97138739 510
2.5572014 0.82621264 0.95014542 420
2.4853323 0.99092209 0.96199399 498.11111
2.5643084 0.96743363 0.99849689 476
2.4572899 1.1044598 0.96366608 497.28574
2.4996362 1.2683983 0.98991007 384.25
2.5552788 1.3408083 0.90946257 329
2.5154054 0.87598145 1.1026193 359
2.474875 0.96619147 1.1184767 1299.8334
2.5755801 0.92332828 1.1906247 311
2.4653146 1.1120951 1.1220762 947.5
2.4996011 1.265851 1.1231163 567.125
2.4983602 0.98269314 1.2392194 880
2.6092992 0.92369592 1.2336597 304.5
2.507129 1.0992012 1.2835802 877.33337
2.5619178 1.1021879 1.3126684 322
2.7537735 1.0584453 1.3351091 299
2.5182834 1.3059659 1.2363877 330
2.5910754 1.2679968 1.2851027 334.5
2.591769 1.0291615 1.470889 327
2.7207282 1.0174284 1.420175 339.5
2.5462823 1.1095942 1.4379065 267
2.6105509 1.0965505 1.4183624 319.875
2.7356462 1.0553432 1.4661833 261
2.6411676 1.2008036 1.4590694 245
2.7117622 1.0474344 1.5221324 275
2.6409373 1.105281 1.5532662 280.25
