# .PCD v0.7 - Point Cloud Data file format
VERSION 0.7
FIELDS x y z intensity
SIZE 4 4 4 4
TYPE F F F F
COUNT 1 1 1 1
WIDTH 1
HEIGHT 108
VIEWPOINT 0 0 0 1 0 0 0
POINTS 108
DATA ascii
-0.68857944 4.7839155 0.12924555 418
4.1837969 0.21806604 0.08346837 310
4.2585201 0.22026365 0.044463523 295.80002
4.03866 0.412516 0.092726946 268.5
4.123138 0.44484058 0.01699248 152
4.2760983 0.35195965 0.027586251 291.5
4.1813107 0.11883613 0.22907147 330.5
4.2673054 0.13311355 0.22481808 285
4.1803551 0.22892703 0.22639547 309
4.2132082 0.22946861 0.22735624 305.80002
4.1087732 0.41974947 0.21788704 304.60001
4.2330165 0.43279785 0.29207835 295
4.1628428 0.12932271 0.40071964 315
4.300499 0.12621817 0.40230176 269
4.193922 0.21807329 0.36353397 317
4.2184243 0.23307806 0.41408896 307.66669
4.2765465 0.3895213 0.3833881 303
4.3892345 0.36796007 0.41741329 292.33334
4.1980009 0.13714848 0.51838994 299
4.3235111 0.11979205 0.52371657 295
4.1675839 0.22638711 0.55864191 319.5
4.2621384 0.33028036 0.52200419 322
4.4061494 0.43684909 0.5288893 283
4.1692104 0.1427176 0.64244312 306
4.3327675 0.11291607 0.65488511 280
4.115221 0.22291821 0.68132007 334
4.1403389 0.34433761 0.68452978 313
4.2693148 0.35946748 0.64259815 305.39999
4.0414772 0.044585247 0.76037848 309
4.0780168 0.11529335 0.82416987 309.66669
3.9834743 0.18422586 0.75468457 313
4.0869837 0.25272188 0.82059574 331
4.1329889 0.37063476 0.81872302 323.5
4.3291426 0.47193468 0.84389031 350.5
4.0133991 0.054899141 0.981731 351.5
4.0044899 0.18915099 0.99652457 321.66669
4.1099777 0.24931884 0.97561866 322
4.164957 0.3732549 0.96266693 324
4.261354 0.4704296 0.97961366 290
4.0136957 0.061272573 1.1222166 311
3.9882548 0.15894572 1.1176699 333
4.1070871 0.23727441 1.1431975 313.66669
4.2126179 0.18151277 1.0647999 313
4.1321292 0.36960462 1.1018492 325.5
4.2977362 0.49359632 1.1879691 318
4.4270144 0.50990289 1.1094661 265
4.015142 0.065516241 1.2181282 339
4.0236206 0.21751037 1.2217234 329
4.0688171 0.22858962 1.2650692 317
4.156661 0.37144542 1.255517 331
4.310957 0.50041437 1.2948016 416
4.1469021 -0.038465362 1.4495689 304
4.1915398 0.077441454 1.4624124 303
4.2368212 0.072403058 1.4236906 303
4.1785274 0.17098364 1.4085567 295
4.2254391 0.27605191 1.4230007 280
4.2149506 0.37260604 1.3712709 309
4.1211429 0.098164499 1.5764618 333.33334
4.1709061 0.15649025 1.5591369 301
4.2799697 -1.1649798 0.046254888 241.25
4.3979263 -1.1687992 0.091278315 295
3.8632777 -0.94366837 0.1015626 285
3.9521608 -0.95243084 0.061315931 264.25
3.8104799 -0.80385321 0.0044110119 400
3.9955494 -0.87902242 0.069877505 249.5
4.0614462 -0.86516017 0.018572062 346
4.3013082 -1.1604166 0.23842287 293.20001
4.4037204 -1.1750306 0.15286189 265
3.9170032 -0.94720614 0.17638198 299
4.0132747 -0.87590659 0.25542971 239.33334
4.2752204 -1.2640301 0.37086791 226
4.3173742 -1.1339411 0.38944817 329
4.1449676 -0.96546382 0.41832155 390.66669
4.0451899 -0.87366736 0.36653557 344
4.0925503 -0.8884213 0.40436727 365
4.2909589 -1.2569909 0.53695261 352
4.3026466 -1.1240337 0.50612855 395.33334
4.3577433 -1.129841 0.49406943 299.5
4.1447749 -0.95006979 0.52476788 401
4.1490788 -0.88703191 0.52381539 404
4.2703009 -1.2415144 0.67019016 335.5
4.18256 -1.0974772 0.70448989 303
4.285481 -1.1213506 0.65866446 286.80002
4.1524158 -0.95086527 0.65373927 395
4.1389947 -0.87937397 0.60721219 402
4.2280078 -0.89411438 0.70222688 263
4.1166258 -1.1270146 0.83855724 1000
4.127532 -0.9730376 0.83377635 792
4.157835 -0.87015843 0.8332926 333
4.1308136 -1.1271002 0.98480642 325
4.0024118 -0.91450745 1.0497271 365
4.1088061 -0.96927166 0.97357643 858
4.0833964 -0.84549457 0.96421802 307
4.1375933 -1.1581193 1.1378959 325
4.0160704 -1.0231458 1.1557838 357
4.0921965 -1.0128736 1.1202377 331.5
4.2073317 -0.96081614 1.1899852 406
4.027698 -1.1290261 1.2653407 1139
4.1388845 -1.1515911 1.2915925 1725
4.039093 -1.026366 1.2602926 1419
4.0500655 -1.026862 1.2627676 339
4.2977953 -0.97534907 1.3146677 245
4.2308874 -1.1119894 1.415343 306.33334
4.1662812 -1.0469306 1.4993283 317
4.2477937 -0.95754468 1.4079911 311
4.19807 -0.97410512 1.6077882 311
4.2521315 -0.96831357 1.5165757 284
4.2907953 -0.8720845 1.5203025 282
