# .PCD v0.7 - Point Cloud Data file format
VERSION 0.7
FIELDS x y z intensity
SIZE 4 4 4 4
TYPE F F F F
COUNT 1 1 1 1
WIDTH 1
HEIGHT 66
VIEWPOINT 0 0 0 1 0 0 0
POINTS 66
DATA ascii
2.3374922 -1.0760689 0.087798864 423
3.8860512 3.8806486 0.012409151 434
3.421679 4.180335 0.031030208 243
3.7805483 4.1627626 0.01030463 259
3.9016387 4.07195 0.0057418346 470
3.3804641 4.3175812 0.028959721 438
3.5413599 4.2662554 0.090557992 256
3.6386726 4.2504883 0.016018555 354.5
3.2731903 4.4209542 0.031679779 448
3.4679785 4.4153795 0.090975508 313
3.2482657 4.5777965 0.063015074 411
3.3497236 4.5727663 0.057572901 240.5
3.5163674 4.5685849 0.012870491 438
3.4614871 4.1926255 0.25408646 388
3.5380886 4.2449598 0.19598894 296
3.4268374 4.3628492 0.2555432 158
3.4647269 4.401947 0.19804808 247.33334
3.2431087 4.5625706 0.21949907 267
3.4180017 4.3376327 0.39481568 280.5
3.5790017 4.2795472 0.39087448 239
3.3868394 4.4662428 0.37378395 336.5
3.4806364 4.3830724 0.44405103 257
3.3721385 4.5017729 0.44901311 247
3.5894575 4.3016601 0.54466021 245
3.4294484 4.3846278 0.54846215 259
3.469764 4.3528776 0.54697776 251
3.3965261 4.5257282 0.55504084 257
3.6020453 4.3233919 0.65634096 253
3.4279249 4.3880181 0.65827155 245
3.486634 4.3601866 0.65719593 253
3.3786788 4.5548682 0.66831398 252
3.5396214 4.3224354 0.82984114 265
3.601198 4.3324542 0.89316154 297
3.4239311 4.3902321 0.83250487 288
3.5026705 4.3660736 0.77289855 273
3.3751218 4.5404601 0.78398436 274.66669
3.4989021 4.3289194 1.0126681 277
3.6014266 4.3375297 1.0189772 281
3.4461555 4.4285579 1.0215609 277
3.3929355 4.5516853 0.97033989 308.66669
3.5072777 4.3239274 1.1401685 277
3.4490099 4.468039 1.155921 271
3.614758 4.3594923 1.152015 253
3.4002981 4.6073418 1.1720903 251
3.5296724 4.3374562 1.2746761 257
3.4424231 4.4324946 1.2825353 303
3.4572682 4.4931889 1.2931309 287
3.6223438 4.3738546 1.2877043 255
3.397979 4.5759511 1.3017327 285
3.4269803 4.6609812 1.3173029 253
3.5511098 4.3494205 1.4132303 261
3.4629705 4.4655843 1.4253289 269
3.6097872 4.3617949 1.4209701 245
3.4136724 4.6033835 1.4454185 267
3.4765644 4.5028305 1.4331206 297
3.4553344 4.6841598 1.4634727 269
3.5473087 4.3278136 1.5465604 263
3.4661453 4.4724526 1.5660273 294
3.6206617 4.3801832 1.5647718 291
3.4248598 4.6224422 1.5915498 285
3.5520012 4.3174191 1.6843859 297
3.4703884 4.4716034 1.7076156 292
3.6239052 4.3884907 1.7086079 297
3.4310579 4.6242695 1.7365274 285
3.5575037 4.3080406 1.8239619 289
3.453752 4.4184279 1.8356794 348
