# .PCD v0.7 - Point Cloud Data file format
VERSION 0.7
FIELDS x y z intensity
SIZE 4 4 4 4
TYPE F F F F
COUNT 1 1 1 1
WIDTH 1
HEIGHT 67
VIEWPOINT 0 0 0 1 0 0 0
POINTS 67
DATA ascii
6.6000156 -0.31735164 0.051309705 316
3.0796216 3.6291518 0.12794194 285
2.914871 3.8511236 0.13128829 420
2.4938993 3.9805694 0.072317652 252.66667
2.2093067 4.123704 0.049945742 232.33334
3.0991313 3.6629076 0.22865953 317.5
2.9158292 3.8267195 0.27116627 328
2.441119 3.9550071 0.21845007 332
2.9654632 3.911742 0.19585438 277
2.2181537 4.0933275 0.22541682 301
3.1293235 3.712743 0.38580406 326
2.803241 3.8709517 0.4369061 262
2.9333591 3.831953 0.39182156 311
2.4414003 3.9710898 0.40459514 273
2.235374 4.0947089 0.37072527 312
3.1061451 3.6899929 0.5169754 354
2.7716486 3.8277061 0.52377063 346
2.967103 3.8597951 0.52481598 308
2.4404583 3.9776816 0.5327161 276
2.2439466 4.0855656 0.49623659 297
3.0581245 3.6342354 0.65598178 325.5
2.7325525 3.7748389 0.66060019 403
2.9536166 3.8194809 0.66680688 308
2.4408195 3.9859469 0.6732806 345
2.6227341 3.9863858 0.67435938 340
2.2498479 4.0703297 0.63078845 370
2.2510607 4.0542879 0.72540611 386
2.9797351 3.5421124 0.895733 2321
2.6779904 3.7015808 0.89989138 3183
3.0561976 3.6380613 0.80567443 303
2.7451756 3.8007488 0.81075478 297
2.9582074 3.8046608 0.81821132 259
2.600805 3.9250569 0.81925124 295
2.2749603 4.0843167 0.82866085 291
2.4843054 4.0730362 0.83182001 281
3.0698464 3.6637626 1.0232788 301
2.5828793 3.8625984 1.0220311 437
2.7419462 3.8038123 1.0222279 307
2.9903975 3.8283534 0.98480427 274
2.2610888 4.0276389 0.97871524 725
2.4165168 3.9527094 0.9207108 1267
2.5963349 3.9013319 0.92084169 307
2.4771943 4.0687079 1.0468999 297
3.04386 3.6334643 1.1280787 311
2.7426949 3.8087485 1.132866 313
2.9522386 3.7530019 1.1392852 313
2.6335418 3.9306488 1.1454215 309
2.3234012 4.1243963 1.1602976 281
2.4670248 4.0540404 1.155977 291
2.6272814 4.1089597 1.0597709 307
2.9883461 3.5642681 1.2241148 2203
2.6943281 3.7378275 1.2286125 2325
2.6222706 3.8953681 1.2518045 327
2.8415074 3.796248 1.2515434 317
2.9702227 3.7635548 1.2571126 309
2.3957841 3.9263754 1.2413067 2399
2.3219922 4.1019645 1.2702719 301
2.6022797 4.0815377 1.2850775 297
2.9338617 3.6984398 1.3577735 264
2.6342993 3.8986547 1.3689038 325
2.7891097 3.8260727 1.4076877 268.66669
2.3153083 4.0690708 1.3790478 315
2.6291528 4.1104388 1.4126093 282
2.5843322 4.2785697 1.4444875 257
2.3488731 4.1160364 1.510412 278
2.4789786 4.0874414 1.5150485 292
2.4005985 4.1981921 1.6571829 241
