# .PCD v0.7 - Point Cloud Data file format
VERSION 0.7
FIELDS x y z intensity
SIZE 4 4 4 4
TYPE F F F F
COUNT 1 1 1 1
WIDTH 1
HEIGHT 94
VIEWPOINT 0 0 0 1 0 0 0
POINTS 94
DATA ascii
-0.85669434 -3.9382007 0.079911523 274
6.1694112 0.44868806 0.071501881 330
5.8151922 0.54435831 0.088083982 298
6.0665703 0.7317667 0.075972319 304
6.0444021 0.8702513 0.076765746 294
6.0117493 1.0314595 0.077955246 290
6.0971899 0.43270171 0.21505517 314
5.8229418 0.55129886 0.17451671 346
5.8632898 0.56150723 0.26815194 314
6.0467091 0.73882449 0.21658193 300
5.9729862 0.86887002 0.21845952 316
5.9251442 1.025188 0.219706 322
6.0837278 0.42119113 0.37028646 302
5.8791494 0.56928039 0.37010059 364
5.9911575 0.7411263 0.37119085 298
5.8926883 0.86581314 0.3715477 348
5.8788977 1.0259467 0.37250304 334
6.041214 0.40767092 0.53968865 294.5
5.9216523 0.58289528 0.53699356 351.5
5.9008865 0.73859936 0.53730601 326.5
5.903594 0.86710137 0.55794632 270.33334
5.8041735 1.0211722 0.53718746 346.5
6.0404925 0.39717832 0.72051215 291
5.818162 0.58127773 0.70792973 2511
6.0436487 0.56137609 0.66042972 261
5.7762074 0.73114896 0.70700979 2603
5.7423253 0.86024725 0.70669544 2295
5.9008121 0.84068763 0.71636426 318
5.7002568 1.0106425 0.70656168 2823
6.0066571 0.38792986 0.8446936 297
5.9858108 0.54516363 0.84444642 265
5.9481277 0.6010434 0.84190309 301
5.883213 0.82346886 0.83976811 288.66669
5.8097372 1.0368448 0.83776486 307
5.9746461 0.37887511 0.97247303 309
5.9431939 0.53408748 0.97084522 291
5.9161801 0.60375893 0.96892452 323
5.8351669 0.85145581 0.96479416 370.5
5.9170132 0.76191223 0.97173572 301
5.8218198 1.0449156 0.96801674 309
5.8077974 0.36111638 1.0848441 2783
5.9141574 0.52438653 1.1010164 386
5.7727051 0.7482751 1.0866973 2497
5.900723 0.60815442 1.1006489 353
5.8481507 0.89450705 1.1001281 313
5.7175226 1.0309445 1.0870901 1855
5.8921676 0.77045679 1.2394749 394
5.8721066 0.90418869 1.2401572 246
5.8289089 1.0577705 1.2386161 230
5.9924173 0.79022175 1.3979197 275
5.9485483 0.92242801 1.3943323 412
5.8836093 1.0739609 1.3884987 416
5.6452341 -1.0033051 0.095231563 269
5.6312041 -1.0094796 0.22686785 285
5.788537 -0.88372934 0.22261325 272
5.6360431 -1.0190923 0.37178624 293
5.76156 -0.88841617 0.37129486 287
5.5369725 -1.1444658 0.58500105 309
5.5964174 -1.1517385 0.47718924 271
5.6453753 -1.0266134 0.47682518 291
5.7142839 -1.0455604 0.59079188 297
5.8521953 -0.9151113 0.59477556 293
5.7453289 -0.87732089 0.5332799 292
5.8510561 -0.72364157 0.59258813 289
5.4040227 -1.2703201 0.69365716 295
5.5541801 -1.153753 0.70028448 313
5.6864424 -1.0459223 0.70634699 291
5.8074884 -0.91369051 0.71161759 289
5.8209949 -0.86746782 0.71174502 392
5.9663978 -0.73136914 0.71902287 392
5.3749266 -1.268396 0.80749083 291
5.5841827 -1.1658432 0.82200849 305
5.6754627 -1.0494621 0.8267929 281
5.8357491 -0.92425793 0.83759737 285
5.8671017 -0.86740971 0.83916068 275
5.9806795 -0.7259481 0.84641385 251
5.4645767 -1.2960017 0.93800068 247
5.4654236 -1.1451722 0.93314469 271
5.6838961 -1.0567381 0.95368314 297
5.8313117 -0.9293943 0.96613204 289
6.2174125 -0.91395783 1.0070926 245
5.479466 -1.3050144 1.0663267 249
5.5464673 -1.1684579 1.0696549 267
5.7794995 -1.0810941 1.0966911 265
5.9087443 -0.9735589 1.1101885 277.5
6.0999842 -0.88832527 1.1327916 212
6.2214947 -0.74140692 1.1453152 206
5.6115832 -1.1311363 1.3091378 248.75
5.7190638 -1.093992 1.2231617 315.5
5.8475013 -0.94377464 1.2376076 273
6.0187221 -0.86845952 1.2616987 244
6.1394005 -0.72370976 1.2765967 360
5.8055363 -0.95394576 1.3699899 364
5.9944911 -0.69854665 1.3957326 314
