# .PCD v0.7 - Point Cloud Data file format
VERSION 0.7
FIELDS x y z intensity
SIZE 4 4 4 4
TYPE F F F F
COUNT 1 1 1 1
WIDTH 1
HEIGHT 56
VIEWPOINT 0 0 0 1 0 0 0
POINTS 56
DATA ascii
2.4953043 -2.7374794 0.11103228 328
4.3849559 -0.60769016 0.041629821 418
4.2634754 -0.59420675 0.10281616 332
4.5680022 -0.51574481 0.085806295 263.5
4.7153969 -0.46725053 0.079182744 270
4.7811189 -0.34401584 0.10432969 380
4.8824463 -0.37752423 0.047870409 292.66669
4.3153253 -0.60640854 0.15858892 340
4.4861236 -0.63665313 0.21682754 243
4.50881 -0.64471215 0.28850132 350
4.6366119 -0.55577582 0.21203992 386
4.7384496 -0.45601815 0.24698646 376
4.7691851 -0.39251846 0.24594192 378
4.849577 -0.33622929 0.25659525 389.33334
4.5885935 -0.66154194 0.36653042 370
4.7187214 -0.49964586 0.36614403 373
4.8281393 -0.45679078 0.36631238 382
4.820652 -0.3350122 0.36589381 361
4.6450815 -0.67491496 0.45167714 356
4.6769829 -0.68456715 0.54278374 396
4.810751 -0.6754927 0.54829007 308
4.7553959 -0.51893258 0.51405954 331
4.8081527 -0.46408221 0.45376736 402
4.7801437 -0.35734877 0.49830544 380.5
4.8163767 -0.39553678 0.49975288 390
4.7180176 -0.69803792 0.68938011 363.5
4.8138847 -0.64585203 0.67888737 268
4.6488776 -0.52002931 0.73010623 461
4.6946278 -0.48648676 0.66826028 346
4.7486844 -0.36192244 0.68744248 319.16669
4.7608838 -0.71188605 0.84665072 299
4.849411 -0.64052039 0.85464281 259
4.5837269 -0.48332739 0.82321632 2312
4.6110425 -0.40824839 0.82505572 2405
4.6596823 -0.35430324 0.82964832 1401
4.7784925 -0.29752365 0.84193444 313
4.9044766 -0.14126696 0.85454452 392
4.7806435 -0.61310077 0.95387506 315
4.8038445 -0.68727076 0.95869297 301
4.6938038 -0.49972603 0.97568411 315.66669
4.7232833 -0.38864186 0.99590647 322.5
4.8453884 -0.2964083 0.95711505 299
4.8992944 -0.14632192 0.9630326 253
4.7306175 -0.67536342 1.1126893 835.5
4.8162565 -0.62514377 1.1258852 358.5
4.5980949 -0.49218884 1.1397322 2093
4.7329903 -0.4878301 1.1083635 504
4.6000018 -0.36364993 1.1373392 2311
4.6799259 -0.3983807 1.1523988 2075
4.7164459 -0.28003287 1.1014013 1214
4.791338 -0.50145996 1.289183 303
4.8401928 -0.51396728 1.2995216 269
4.8741684 -0.40101823 1.3037779 275
4.9729857 -0.28763992 1.3220644 334
4.7613111 -0.49946404 1.3983238 362
4.8409729 -0.39774591 1.4139969 337
