# .PCD v0.7 - Point Cloud Data file format
VERSION 0.7
FIELDS x y z intensity
SIZE 4 4 4 4
TYPE F F F F
COUNT 1 1 1 1
WIDTH 1
HEIGHT 72
VIEWPOINT 0 0 0 1 0 0 0
POINTS 72
DATA ascii
1.5252932 1.4207845 0.1415427 594
3.0207074 -1.8161809 0.12303805 313
3.3773024 -1.8788513 0.14418933 410
2.9729583 -1.7758703 0.052206457 331.33334
3.0404291 -1.7291871 0.075124025 322.28574
3.2254314 -1.9627433 0.25798804 436
2.9929321 -1.8014399 0.16736597 331
3.0421391 -1.9077328 0.22899257 391.33334
3.1513679 -1.8139691 0.2601642 237
3.3787808 -1.8706987 0.22470739 412
3.0854068 -1.7809249 0.18637823 238
3.0651217 -1.9679945 0.38373873 400.66669
3.2388258 -1.9769962 0.35010082 382
3.1508274 -1.8017738 0.37911376 390
3.3594646 -1.8437028 0.38081846 394
3.1184766 -1.7874349 0.31795606 396
3.1516843 -1.7962855 0.44414964 386
3.1169643 -2.012722 0.55840272 330.5
3.2363548 -1.982187 0.4872455 328.5
3.200861 -1.8656448 0.56651211 239.66667
3.333317 -1.8156524 0.51947427 255
3.267905 -1.7707046 0.58931524 235
3.1648185 -2.0512886 0.67742825 253
3.0912814 -1.8943894 0.70019305 287
3.1898127 -1.8014106 0.66247344 356
3.3063023 -1.9470674 0.67966831 392
3.1749656 -1.7067299 0.69430315 306
3.3322778 -1.968488 0.80926359 338.5
3.0876863 -1.8977621 0.86005723 1549
3.1765928 -1.6985637 0.81152356 3077
3.1010773 -1.9110448 0.98916614 411
3.2508144 -1.7325056 0.94825327 329
3.0773778 -1.8991326 1.1130738 325
3.2459378 -1.7171044 1.1187308 342
3.0559528 -1.8886479 1.2381649 345
3.3396847 -1.761446 1.2787758 333
3.3852224 -1.7776992 1.431396 291
3.4330924 -1.6185418 1.4650543 279
2.9055941 -2.4101005 0.077422775 361.5
2.8891954 -2.3430097 0.071902782 370.25
2.8794646 -2.4026151 0.26975304 390
2.8996675 -2.3531377 0.204759 388.80002
2.9054365 -2.4302838 0.32948256 364
2.9300132 -2.3211298 0.35947484 399
2.9135666 -2.448312 0.53705215 334
2.8986368 -2.2753992 0.52877241 263
3.1278472 -2.3378839 0.53659588 424
2.8652694 -2.2464907 0.52556813 414
2.9589067 -2.4936371 0.61811173 263
2.8429286 -2.3891761 0.68407357 307
2.9158425 -2.2751539 0.6789639 257
3.0753725 -2.2874022 0.60945648 257
2.9078743 -2.200954 0.71169543 350
2.8643241 -2.4120715 0.76818842 309
2.7883792 -2.3443136 0.83742642 1537
2.8135843 -2.1724699 0.82057226 3293
2.9369876 -2.1563842 0.78969848 1004
2.8520122 -2.4092035 1.0230348 327
2.8428235 -2.3978431 0.93322551 321
2.8908744 -2.1870558 0.94014472 345.66669
2.8652678 -2.0804451 0.97813892 399
2.8708124 -2.4294908 1.118265 325
2.8280404 -2.3921912 1.1958487 239
2.8990936 -2.2224061 1.0890671 337
2.8907449 -2.0899458 1.1105742 391
2.9768546 -2.2802227 1.2003667 383
3.06285 -2.2786341 1.3082399 287
3.0087528 -2.290988 1.3935552 291
2.956866 -2.2397158 1.4638515 341
3.0843773 -2.2248509 1.3961776 254
3.1350682 -2.0558047 1.4669831 313
3.2447069 -2.0570848 1.4312279 281.66669
