# .PCD v0.7 - Point Cloud Data file format
VERSION 0.7
FIELDS x y z intensity
SIZE 4 4 4 4
TYPE F F F F
COUNT 1 1 1 1
WIDTH 1
HEIGHT 169
VIEWPOINT 0 0 0 1 0 0 0
POINTS 169
DATA ascii
0.094640568 4.4398537 0.12517156 214
1.1878049 -1.7098922 0.14924163 279
0.47194523 -2.1246233 0.24342942 271
0.53667921 -2.0088043 0.24519621 260.9231
0.6798591 -2.0160758 0.22561145 259.60715
0.81702226 -1.9986143 0.22544411 284
0.86011446 -1.8829243 0.21495599 303.16669
0.95888281 -1.8438815 0.22895756 319.61539
1.0142686 -1.7391719 0.22217764 377.70587
1.1190413 -1.725737 0.23595917 341.27585
1.2120403 -1.7165222 0.23821931 276.20001
0.44855422 -2.1149559 0.38585401 289
0.49508047 -2.1288202 0.35626498 302.39999
0.67259628 -2.1115036 0.38819024 270.5
0.5337913 -2.0109794 0.3594842 285.09091
0.66633952 -2.0276663 0.35970652 305.66669
0.81359601 -2.0000556 0.36898899 292.82608
0.87301719 -1.8865334 0.3747693 305.00003
0.96921158 -1.8429321 0.36802807 317
1.0172393 -1.7402182 0.37410182 394.5
1.1156708 -1.7166014 0.37935427 393.26315
1.2327466 -1.7198647 0.39191145 278.33334
1.1449558 -1.6279151 0.32467324 414
0.44840541 -2.1404688 0.46561164 297
0.55074149 -2.1146328 0.55975831 303.20001
0.67035621 -2.1214414 0.50323838 266
0.44197568 -2.0860479 0.55019581 314.33334
0.51044953 -2.0551848 0.50942838 379.33334
0.68667907 -2.0457704 0.52943659 272.35715
0.79814839 -1.9945066 0.52859795 301.46155
0.49222398 -1.9325595 0.45263776 112
0.8718462 -1.8770218 0.52354479 313.16669
0.95566261 -1.8303808 0.51907367 325.88889
1.051953 -1.8027748 0.47455361 363
1.020636 -1.7293164 0.525675 382.5
1.11559 -1.7013998 0.52465582 441.15387
1.210704 -1.6529335 0.54654759 344
1.144274 -1.6448336 0.52865648 347.60001
1.2022249 -1.6449658 0.50379771 360
0.43677735 -2.0518365 0.68872321 324.33334
0.53262216 -2.0583708 0.68802959 330.22223
0.67827618 -2.0299504 0.6786418 308.69232
0.77110118 -1.9681996 0.67255509 316.20001
0.72298491 -1.9396322 0.69132578 318
0.84423256 -1.8828272 0.66896117 338.70001
0.94872749 -1.8204725 0.65677196 372.55557
0.89047873 -1.7948688 0.64586484 355
1.002852 -1.7655309 0.68714821 392.83334
1.1073612 -1.7288277 0.68237841 383.14288
1.2238532 -1.7165048 0.64528942 316
1.2102706 -1.6274083 0.70021546 686
0.43662232 -2.0705621 0.82036239 321
0.5503552 -2.0246272 0.82752377 317.71429
0.6803211 -1.9894208 0.82288444 332.66669
0.79447222 -1.9593313 0.80944824 345.5
0.71081442 -1.9211584 0.83213061 364.60001
0.83931059 -1.8787708 0.82497025 368.60001
0.94777 -1.8314068 0.8110795 397
0.99271661 -1.7612554 0.8342697 416.07693
1.1052059 -1.720688 0.83224875 435.00003
1.1646569 -1.6333889 0.81674528 737.66669
1.2176946 -1.6223617 0.81936562 741.66669
0.43952131 -2.1250844 0.97143143 282.33334
0.56610262 -2.0135598 0.98139232 355.39999
0.67063838 -1.978313 0.9870013 363.46155
0.8051157 -1.9519843 0.95273966 370
0.73826236 -1.9109505 0.95316505 380.60001
0.82431358 -1.8782672 0.97924989 375.5
0.93724918 -1.8475761 0.95550328 406.55557
1.2016023 -1.8061274 0.9138279 263
0.98840231 -1.7670388 0.98582536 431.40002
1.1089919 -1.7436447 0.9795348 438.55557
1.1145346 -1.6270864 0.97130924 763.44446
1.2298448 -1.6215379 0.96867454 725
0.52905166 -2.155901 1.1526262 283
0.43346882 -2.0694857 1.1203585 340.66669
0.52446699 -2.045342 1.1390011 305.75
0.68602151 -1.9788963 1.1288861 345.71429
0.69953585 -1.9166746 1.0949073 362.5
0.82354397 -1.8856618 1.1288959 357.625
0.94179046 -1.851741 1.1134027 403
1.1989585 -1.8073124 1.128225 275
0.99193311 -1.7595319 1.1340208 399.13336
1.1217917 -1.7510005 1.1420597 354.55557
1.1292132 -1.6313828 1.1271588 700.60004
1.2452463 -1.6260517 1.121387 563
0.41656542 -2.1574311 1.3248816 279
0.47419345 -2.1365399 1.2304609 296
0.41176984 -2.0870993 1.2926071 318.5
0.53004962 -2.0416081 1.2794418 391
0.67991418 -1.9864863 1.2773497 334.88235
0.80065763 -1.9503911 1.2966791 349
0.74270284 -1.9466631 1.2904381 367
0.82411438 -1.8830495 1.2760121 345.35294
0.94311547 -1.8477018 1.264213 400.11111
0.9974795 -1.7574555 1.2782235 384.8667
1.1193902 -1.7496903 1.2810936 320.71429
1.2639997 -1.6831801 1.3167119 312
1.1355802 -1.633729 1.2731285 537.25
1.2676204 -1.642152 1.2763592 221.5
0.36285073 -2.1032808 1.3552252 406
0.39619654 -2.068243 1.4395326 415
0.53959197 -2.030601 1.4303681 424.60001
0.68745714 -1.9780105 1.4275222 331.70587
0.68176997 -1.9383676 1.4033535 359
0.82386768 -1.8806512 1.4284965 333
0.94348431 -1.8412794 1.4231057 390.16669
1.0890565 -1.8119515 1.4111443 271.66669
0.98837423 -1.7574543 1.4280922 365.80002
1.1080375 -1.7221777 1.4339253 336.78574
1.2405062 -1.683131 1.4009615 279.5
0.441771 -2.1055641 1.6413831 315
0.53626895 -2.1388516 1.6212394 290
0.39868888 -2.0494456 1.572041 405.33334
0.55389494 -2.0287235 1.5726917 335.57144
0.67923486 -1.9734086 1.5688118 325.80002
0.7597636 -1.9793379 1.5598488 331
0.62295401 -1.9445958 1.5473709 331
0.82482862 -1.8757676 1.5598501 325.42105
0.94147342 -1.8445386 1.5723388 346.16669
0.99475104 -1.7476813 1.5606761 328.80002
1.1007264 -1.7480054 1.56073 324.375
0.44957477 -2.1544135 1.7098427 261
0.412965 -2.074127 1.7107881 289
0.67664862 -2.0185871 1.7162454 265
0.78996044 -2.0124321 1.7114717 278.28574
0.83157313 -1.8936075 1.6790209 317
0.94987887 -1.8899806 1.6961696 285.5
1.1683667 -1.823929 1.6790079 279
0.9839617 -1.7889137 1.6628622 299
5.016757 -2.1146617 0.082585424 308.5
4.8812943 -2.0249786 0.054273576 214
5.0231113 -2.0127139 0.095798478 298.66669
5.0372014 -1.9241395 0.12022328 269
5.0421162 -2.1081753 0.25890613 317.33334
5.034574 -2.011313 0.22970311 321.33334
5.0190144 -1.9247286 0.24437135 320
5.1851101 -1.8438671 0.28404647 266
5.0723758 -2.1209717 0.38302863 303
5.1380377 -1.9869004 0.38109449 294
5.165905 -1.8319463 0.37900585 208
5.0624123 -2.1336055 0.53690785 354
5.0482326 -2.0056522 0.5225181 327.60001
5.037591 -1.9360971 0.58325589 418
5.1538677 -1.8355181 0.47911775 260
5.2438164 -2.2865477 0.60149717 231
5.2947378 -2.3011041 0.7207458 277
5.0471992 -2.1342871 0.70031762 285
5.0528393 -2.0194335 0.69616532 292
5.0550818 -1.9352524 0.69310653 283
5.2451348 -2.2695725 0.83700705 281
4.9240971 -2.0494452 0.80196679 1952
4.9446831 -1.9216028 0.79750133 2301
5.0257382 -1.915445 0.80347013 333
5.2236171 -2.2509177 0.95883238 313
5.0736041 -2.1558061 0.93880498 299
5.0381079 -2.0091157 0.98766625 305.5
5.1266193 -1.947916 0.93231654 281
5.0272923 -2.1420417 1.1187816 1104
5.1441512 -2.2060845 1.0745984 321
4.9199848 -1.9883996 1.1553278 2357
4.9856062 -1.9524438 1.1619385 1117
5.1634583 -1.9544466 1.0604186 293
5.183629 -2.2151344 1.2097652 247
5.1604238 -2.0560284 1.3252645 299
5.0938196 -2.0457954 1.445487 321
5.1440902 -2.027478 1.4531893 309
5.2039642 -1.9455571 1.4570352 166
5.3285122 -1.9416589 1.480329 255
