# .PCD v0.7 - Point Cloud Data file format
VERSION 0.7
FIELDS x y z intensity
SIZE 4 4 4 4
TYPE F F F F
COUNT 1 1 1 1
WIDTH 1
HEIGHT 63
VIEWPOINT 0 0 0 1 0 0 0
POINTS 63
DATA ascii
5.4709558 -5.4022369 0.074480802 204
3.0566728 0.13539462 0.072029151 308.39999
2.915925 0.18398201 0.08280836 365
3.0563097 0.19566503 0.14213614 263
3.2821531 0.39206773 0.033559769 361
3.3724663 0.40266553 0.082272343 305.20001
3.3449917 0.50037235 0.039201826 244.5
3.0591099 0.091414571 0.26182967 230
3.2214985 0.091118537 0.21231167 308
3.3663902 0.019752594 0.25211197 233
3.0832803 0.19393703 0.22562009 274.16669
3.1662507 0.16207229 0.21332477 265
3.3947608 0.37389058 0.20369893 268.22223
3.4675376 0.44198525 0.2239072 243
3.4944043 0.45174444 0.15052956 253
3.2222238 0.093717329 0.34989336 288
3.3707016 0.047226138 0.37582916 258
3.12219 0.19897437 0.34797275 251.5
3.1759412 0.18551065 0.37194568 255.8
3.4318321 0.26502669 0.36289486 314.5
3.4787273 0.26896268 0.36130291 243
3.4058924 0.3491478 0.36263356 246.66667
3.2320714 0.10118014 0.49801752 298
3.4086461 0.036235552 0.51756316 258
3.2123201 0.19789539 0.50788128 246.66667
3.3875806 0.2499492 0.55043185 269
3.4555218 0.25927109 0.48722169 241
3.4353328 0.35596189 0.53194451 267
3.4557569 0.34177059 0.48782781 269
3.2500353 0.12850536 0.67483711 309.66669
3.350431 0.083316796 0.68535149 273
3.5814953 0.04390686 0.63468778 315
3.1167459 0.21783862 0.72813249 331
3.1917946 0.22628027 0.66973758 320.71429
3.3311214 0.24169818 0.61427724 273
3.4670532 0.16255237 0.62531233 289
3.2478852 0.32880527 0.71142393 368
3.3980627 0.35548902 0.65705383 279.5
3.2576842 0.1333888 0.81816065 691.66669
3.3678117 0.14644302 0.8352195 285
3.1226282 0.2230581 0.79790258 2104.3335
3.1773717 0.25387537 0.86428469 786.20001
3.3498051 0.38000071 0.79927492 294.5
3.2539029 0.11517744 0.9850589 374.5
3.4052248 0.086508721 0.94413543 258.66669
3.0981176 0.2746433 0.98482144 403.66669
3.1746368 0.21993653 0.98077291 391
3.1070716 0.35082874 0.94034255 394
3.1736226 0.35536841 1.0287479 275
3.249145 0.14041811 1.1572617 416
3.3802164 0.098774977 1.0713024 307
3.133842 0.25820166 1.1098371 391
3.1732993 0.22349747 1.1571462 389
3.1664133 0.35080424 1.1022595 200
3.4004173 0.073352039 1.3197377 301
3.2150588 0.23849674 1.2654684 332
3.3560805 0.1883119 1.3077848 300
3.2483811 0.085782766 1.4788487 362.33334
3.3616939 0.078768179 1.4286613 264.5
3.2686312 0.1528946 1.4363165 316
3.3509998 0.20502107 1.419127 286.39999
3.2971544 0.15767013 1.524937 360
3.3368301 0.19756031 1.5412762 316
