# .PCD v0.7 - Point Cloud Data file format
VERSION 0.7
FIELDS x y z intensity
SIZE 4 4 4 4
TYPE F F F F
COUNT 1 1 1 1
WIDTH 1
HEIGHT 101
VIEWPOINT 0 0 0 1 0 0 0
POINTS 101
DATA ascii
2.1952286 -5.7183957 0.2989881 360
2.9226029 5.9903803 0.079271466 374
2.7988622 6.083344 0.082475454 360
2.9687715 6.0058379 0.076792657 230
2.9426668 5.9964352 0.22380786 327
2.8040996 6.0837483 0.22843 368
2.9736273 6.0280433 0.1711849 140
2.8084159 6.0808134 0.39071193 341
2.9119654 5.9204664 0.50270516 152
2.8076944 6.0693874 0.5098238 331
2.9342461 5.9793048 0.63002038 254
2.8279521 6.0644054 0.63567227 392
2.9384181 5.9970808 0.76412213 382
2.8084493 6.0501842 0.76835096 382
2.7489831 5.9858584 1.044548 243
2.9228315 5.9699383 0.90087306 402
2.7895288 6.0265889 0.97739303 365.75
2.7683642 6.227037 0.92353332 408
2.7281461 6.3934798 0.93868947 142
2.6506915 5.8127437 1.1683742 165.5
2.5165527 5.8584023 1.1720138 231
2.8130686 5.9080319 1.1843607 237
2.880775 5.8895826 1.1834775 267
2.3102527 6.2813067 1.0747706 239
2.6537771 6.2083921 1.0684652 400
2.1754401 6.4110727 1.0895162 248
2.3961515 5.5510306 1.2696549 251
2.6208837 5.6900268 1.2973032 247
2.7277219 5.6151142 1.2890515 255
2.3156438 5.8263302 1.3110662 403
2.6392868 5.8105268 1.3164672 430
2.1890631 5.9241834 1.3241947 251
2.4524119 5.8716965 1.3211743 438
2.0700824 6.0740018 1.3463823 348
2.4632092 6.1039267 1.2042111 426
2.2864954 6.2168241 1.2174625 243
2.4054098 6.2581496 1.22435 237
2.5528946 6.1780863 1.2155002 430
2.13785 6.3743477 1.2379229 281
2.2894931 6.4641738 1.2512928 404
2.6031287 5.3641119 1.3884099 247
2.8582671 5.3883996 1.4040024 249
2.5554066 5.5376334 1.4171257 422
2.969362 5.4310579 1.4167805 243
2.3596103 5.5890636 1.4194582 251
2.4134858 5.6026411 1.4236463 249
2.5675519 5.6038766 1.4293183 257
2.75263 5.6127105 1.4382629 253
2.9225659 5.6887488 1.4590113 432
2.1206799 5.8444481 1.4591931 394
2.3317106 5.7518067 1.4478761 500
2.1638405 5.8535995 1.4618644 350
2.3016188 5.8798647 1.47016 402
2.2011421 6.1398978 1.3587459 410
1.9355059 6.2085929 1.3666267 402
2.1544523 6.4670711 1.4104686 442
2.8029447 5.278429 1.5277795 249
2.3318951 5.4824152 1.5450712 259
2.5424938 5.5123405 1.5603422 249
2.6897345 5.4760795 1.5604136 440
2.8091433 5.4183321 1.5555056 253
2.3680809 5.8598304 1.6232065 60
1.8752438 6.1781979 1.5162706 239
2.6944165 5.5155559 1.7214558 237
2.3125284 5.8371873 1.7737402 424
2.4900982 5.8681417 1.7891127 698
3.1871705 6.1334844 3.4838285 336
3.0565929 5.9876146 3.7212896 267
3.110029 6.1326957 3.638546 414
3.1782334 6.1206865 3.6447835 382
3.3283262 6.1786661 3.6977792 232
3.1843834 6.1400414 3.8174431 438
3.0794265 6.4201055 3.7656965 413
3.1390066 6.1348519 3.962945 412
3.175462 6.1280937 3.9665387 380
3.3579721 6.1743431 4.0255895 312
3.5622902 6.2278466 3.9322002 306
3.619911 6.2784629 3.9676356 314
3.8211112 6.2767768 4.0094061 208
3.0787849 6.4053564 3.9264426 394
3.4590452 6.3694453 3.9782491 240
2.9849577 6.0793939 4.1898656 378
3.1428885 6.1140718 4.1011548 414
3.2284279 6.0667286 4.0942607 363
2.9999967 6.2624302 4.1513429 400
3.0342419 6.2196388 4.1352348 380
3.3882573 6.2410603 4.0646811 208
3.6110923 6.2804012 4.1305776 297
3.7628281 6.1803389 4.1157484 276
2.8418951 6.3257694 4.1567206 622
3.0717592 6.335299 4.0512762 384
3.0867271 6.4533367 4.1136084 412
2.8640118 5.9721107 4.290801 355
2.9748802 6.0284925 4.2879901 380
2.6558018 6.2642179 4.2317576 282
2.8088882 6.2053127 4.2686701 462
3.8077025 6.1649504 4.2738004 272
2.8234849 5.8939557 4.3971548 370
2.9566555 5.9478054 4.4055367 350
2.8099096 5.886404 4.554996 204
2.7678289 5.8499331 4.6785989 258
