# .PCD v0.7 - Point Cloud Data file format
VERSION 0.7
FIELDS x y z intensity
SIZE 4 4 4 4
TYPE F F F F
COUNT 1 1 1 1
WIDTH 1
HEIGHT 75
VIEWPOINT 0 0 0 1 0 0 0
POINTS 75
DATA ascii
2.4965191 -5.7768822 0.10370171 332
5.602809 -0.25691554 0.072629318 308
5.5109224 -0.085388333 0.064942583 279
5.7839012 -0.14157179 0.050259113 185
5.6469512 0.027520308 0.096369117 322
5.7436199 0.040611662 0.052346617 268
5.5218959 -0.26152045 0.22826467 352
5.5546165 -0.2576865 0.22759268 359
5.4485312 -0.096263275 0.2300472 366
5.7608299 -0.12817304 0.22258984 357
5.6735077 0.032260545 0.22478995 357
5.5820303 -0.26153058 0.36825588 321
5.4928932 -0.10605549 0.36775303 324
5.7406936 -0.11810782 0.36860082 356
5.6713548 0.032162014 0.36832225 341
5.5909166 -0.26175812 0.52436715 338.5
5.5221438 -0.11564532 0.52195978 344
5.7267294 -0.10826027 0.52845788 388
5.6457305 0.038668863 0.54405463 384.66669
5.7315955 0.012046616 0.4732703 380
5.6564155 -0.26441664 0.69524252 302.5
5.6258001 -0.063320316 0.69271451 332.5
5.7678571 -0.099465661 0.70181763 283
5.6546016 0.064698793 0.6945219 305
5.5336366 -0.22764638 0.80304885 2049
5.6808381 -0.29717094 0.8160913 313
5.6516757 -0.076807767 0.81270045 622.33337
5.592907 0.070038795 0.80760717 829
5.6213155 -0.26202506 0.93316644 978
5.5301642 -0.13671845 0.92256606 1305
5.60848 -0.012841824 0.93083453 1769
5.8374457 -0.08777263 0.95584309 293
5.7431359 0.078265436 0.9455632 295
5.6333981 -0.30942869 1.1263518 300
5.6578107 -0.21700989 1.1287268 289
5.6788249 -0.14669104 1.0661426 285
5.7650533 -0.019524338 1.0772276 289
5.8665977 -0.081738658 1.0907601 287
5.7604651 0.084762707 1.0767239 275
5.705698 -0.15354639 1.2006626 277
5.7514906 -0.028904879 1.275214 286.5
5.945467 -0.076314755 1.2378501 243
5.8177662 0.091950282 1.2179229 289
4.6531992 -3.760622 1.7388439 295
4.7076678 -3.5918293 1.7191266 249
4.5417762 -3.8296957 1.8814062 756
4.7288761 -3.830013 1.9159857 590
4.8776484 -3.7163897 1.9227849 267
4.9536686 -3.6008029 1.9165285 267
4.6850319 -3.580941 1.860721 426
4.8009014 -3.4649897 1.8621449 259
4.8171148 -3.6924746 2.0599074 522
4.948092 -3.5838931 2.0664527 314
4.9527974 -3.5856597 2.0678205 532
4.5996518 -3.319406 2.0820036 348
4.9554739 -3.7659187 2.1040921 430
4.5465684 -3.6818442 2.1491435 524
4.679801 -3.5852237 2.1580727 418
4.5677929 -3.4422238 2.1008162 408
4.5942597 -3.5198576 2.2698929 434
4.7220583 -3.5532961 2.3100612 536
4.8610816 -3.5242476 2.3389816 426
4.738245 -3.5365984 2.4596419 490
4.9005523 -3.5102639 2.4980364 376
4.9365931 -3.4144411 2.4852734 392
4.7371063 -3.644758 2.6359358 390
4.7670407 -3.564142 2.6231256 344
4.6972008 -3.406945 2.5610361 416
4.8533516 -3.4096112 2.6087904 326
4.6674509 -3.4611206 2.8495421 458
4.9309287 -3.5086856 2.8063729 362
4.8666763 -3.3721251 2.7486591 270
4.8928866 -3.4679971 2.9278874 280
4.7271833 -3.4387813 2.8630707 446
4.8052669 -3.3337722 2.9283824 141
