# .PCD v0.7 - Point Cloud Data file format
VERSION 0.7
FIELDS x y z intensity
SIZE 4 4 4 4
TYPE F F F F
COUNT 1 1 1 1
WIDTH 1
HEIGHT 353
VIEWPOINT 0 0 0 1 0 0 0
POINTS 353
DATA ascii
0.75404584 2.1574671 0.14053223 301
0.54225618 2.3173721 0.1371341 277
0.68531156 2.2796867 0.13361529 290
0.82987809 2.2826707 0.12578702 235
0.28271738 2.0971544 0.29181236 210
0.37640128 2.1450438 0.23700495 279.59259
0.46421859 2.1470485 0.17467281 283.33334
0.66895401 2.2409523 0.17646518 291
0.76676834 2.2093627 0.16627771 286
0.54243851 2.2935352 0.23688921 280.84616
0.6636402 2.2841725 0.22237402 286.14288
0.28119877 2.0737855 0.3223623 214
0.38325721 2.1387522 0.37064022 281.04169
0.5563665 2.2445655 0.42494303 271
0.53895503 2.2960243 0.34830663 288.88889
0.63852 2.302124 0.34501737 275.33334
0.38745862 2.0751305 0.55071414 297.83334
0.48336315 2.0840831 0.58327562 290.5
0.39927551 2.1177347 0.46582326 292.20001
0.51518488 2.1612961 0.50906712 274.33334
0.53259629 2.2931573 0.52891535 265.80002
0.39509621 2.0543764 0.68286055 329.57144
0.49971747 2.065134 0.6897161 296.83334
0.38757873 2.1359391 0.68667603 290.33334
0.52404362 2.170433 0.60432804 271
0.60521877 2.149992 0.67666399 329.5
0.40202427 2.0376172 0.81367934 446.33334
0.50548071 2.0242972 0.84423649 443.83334
1.02147 1.9948206 0.89404392 270
0.38572586 2.1472282 0.79917288 325.5
0.56614339 2.1138515 0.80173254 305
0.62086427 2.1707191 0.83312929 325
1.019538 2.1813829 0.88146067 252
0.93115163 2.2647972 0.89740837 310
0.99478918 1.7834718 1.0168858 166
0.22541793 1.8975241 1.0115914 331.5
0.36834416 1.8954449 0.98068857 371.625
0.50652665 1.9258084 0.94921595 373.28574
0.62616467 1.9450324 1.0237334 351
0.27789935 2.0091755 1.0480549 267
0.40863025 2.0605726 0.92544615 445.33334
0.51915669 1.991322 0.99203664 362.71429
0.62377429 1.9544809 0.97415721 329
0.98015815 2.0567141 0.98098677 222.57144
1.0694342 1.9700477 0.97429878 268
0.64637899 2.1038208 0.96518517 275
0.98249322 2.2040231 0.96935028 272.80002
0.66868329 2.2549064 0.94928133 303
0.88541532 2.3290153 0.97268319 322
0.93551964 2.3061032 1.0107403 330
0.72594631 2.5032418 1.0154272 318
0.81198162 2.4509139 0.98150575 293
0.96013451 1.7153715 1.1205463 294.80002
0.53626001 1.9300659 1.1034218 388.33334
0.6333974 1.9397397 1.1270113 391
1.0578127 1.9033734 1.144624 240
0.38788974 2.0289326 1.1061629 403
0.51124787 2.0018563 1.1215382 481
0.63648319 1.9562727 1.1335865 511
0.97813386 2.0196085 1.1233436 223.77779
0.43543383 2.1886101 1.105812 345
0.87504816 2.2209334 1.1572806 330
0.98664981 2.1884487 1.1315731 314.85715
0.85418427 2.3556297 1.1149693 328.75
0.93564641 2.2855208 1.1204944 328.5
0.69706821 2.5017569 1.1147587 314
0.80560821 2.4465895 1.1146864 333.14288
0.87263179 1.6019738 1.3232619 406
0.9561494 1.6007867 1.3000822 337
0.97038978 1.7404894 1.2807183 297
0.54851568 1.9386998 1.2270335 399
0.88642025 1.9379214 1.3496213 302
0.97610646 1.8831618 1.2719363 255.2
0.41242224 2.085947 1.3461913 341
0.49741337 2.0672486 1.2842195 317
0.87630802 2.0305271 1.3128078 358
0.9502911 2.0447738 1.2996438 249
0.41257304 2.1865578 1.3089671 291
0.51992917 2.1355393 1.2808582 316.20001
0.8658762 2.1846671 1.2937222 308.5
0.95618182 2.1621873 1.2667869 304
0.73959887 2.2524965 1.3147596 116
0.82584894 2.3402982 1.2782737 308.66666
0.93956774 2.2616923 1.2379699 348
0.69403714 2.4507761 1.2638974 321
0.80375445 2.42558 1.2366185 346
0.70939207 1.4496264 1.366117 190
0.81808186 1.5940202 1.4116496 290.66669
0.82702124 1.7287949 1.442273 323.60001
0.92363709 1.7556372 1.3759954 383
0.84454513 1.8881571 1.4443027 313.14288
0.91553366 1.8849757 1.4555696 350
0.41912144 2.0635178 1.4369776 335
0.51689661 2.0619054 1.4176705 342.5
0.70295531 2.0860615 1.4063054 394
0.85609055 2.0464444 1.4108958 263
0.9341799 2.0213001 1.4114883 226
0.43007475 2.1475353 1.4023728 307
0.57201713 2.118412 1.4554837 333.25
0.66301972 2.1964791 1.4472548 240.8
0.8187207 2.1748805 1.4292997 277.83334
0.93324256 2.1918368 1.3906703 338
0.68737108 2.3470311 1.4316895 295.20001
0.79432434 2.327853 1.3977071 233.60001
0.37837642 2.5160484 1.4547944 344.5
0.47004884 2.5030675 1.447862 350
0.6411289 2.4318318 1.4506738 316
0.39439499 2.5706389 1.3770263 362
0.47990197 2.5708919 1.3759788 356
0.72752857 1.6370639 1.5172763 116
0.80005872 1.6038821 1.5062047 348
0.62680423 1.7950218 1.6136312 328
0.81754708 1.7247722 1.5198885 309.14288
0.65493417 1.8869312 1.6072603 224.57144
0.82373416 1.8855761 1.5474162 293.81818
0.4237451 2.0192642 1.5063556 368
0.52173811 2.0596135 1.5223536 299.33334
0.68791538 2.0362535 1.6233089 262.81818
0.80152124 2.0406709 1.5581889 240.5
0.9021138 2.0388427 1.5007292 298
0.43076551 2.1760755 1.5221238 286.5
0.56359828 2.1624203 1.5965972 279.66669
0.67366356 2.1638246 1.584343 277.125
0.7635271 2.153703 1.5469491 258.33334
0.26327866 2.3496513 1.6199398 269
0.3474111 2.3229108 1.6183619 282
0.4804804 2.2925935 1.5581859 450
0.7227509 2.313756 1.5200316 322
0.26466584 2.4144804 1.5378528 346
0.35328487 2.4369807 1.5530196 295.125
0.48429817 2.4131951 1.5324707 346
0.5883894 1.9213454 1.668698 190
0.24101457 2.0293663 1.71479 217
0.37835523 2.0421226 1.7156841 209.55556
0.53479481 2.0560393 1.6774019 221.71429
0.63955873 1.9743561 1.663009 240.66667
0.24648426 2.1743226 1.7062329 259.33334
0.37624848 2.1716657 1.6913517 267.33334
0.50956303 2.1692982 1.669809 281.25
0.64750683 2.1270216 1.6611052 243
0.26215324 2.282949 1.6617819 260
0.34380656 2.2730722 1.6532764 251
0.48755407 2.2734966 1.652123 310
2.0664215 1.3037221 0.12755482 394.33334
2.312604 1.2710162 0.10194285 373.5
2.0772018 1.4110675 0.10357302 348.75
2.1069467 1.4524866 0.14236867 423
2.3313513 1.4145602 0.10524883 332.20001
2.3113744 1.1848562 0.21881242 449.80002
2.0470071 1.2850147 0.23210944 435.93335
2.191792 1.3476837 0.29026499 311
2.3162754 1.2704033 0.21357323 449.94736
2.0625377 1.3906181 0.23873705 352.00003
2.1084008 1.4388241 0.20498829 317.66669
2.3365715 1.3959213 0.21843158 354.125
2.2972322 1.1722046 0.37567979 428.00003
2.0508492 1.2805289 0.37241501 410.77777
2.1192021 1.2697262 0.37995243 438.60001
2.2972112 1.2789066 0.37702668 417.25
2.0808194 1.4065846 0.33261946 341
2.3274128 1.3611126 0.32758692 286
2.048985 1.180039 0.58250809 536
2.1941323 1.1677257 0.52970493 492
2.2975397 1.1409442 0.50275564 479.85718
2.0607278 1.2524329 0.50386184 492.80002
2.100641 1.2136739 0.45654044 515
2.2809589 1.2726874 0.50824451 479.57144
2.0558672 1.1524941 0.69485891 502.33334
2.1814427 1.1326106 0.6722759 452.33334
2.2885711 1.1096171 0.65408891 432.20001
2.4881339 1.1434083 0.70977533 351
2.065223 1.2745622 0.66636723 468.39999
2.1439455 1.2145033 0.6581713 457.66669
2.2782185 1.2239511 0.61775219 471
2.5086813 1.2643411 0.70181346 347
2.1432891 1.408646 0.67710376 280.33334
2.0590363 1.1484655 0.80829436 461.28574
2.1642942 1.1296331 0.82266295 409.22223
2.342669 1.1012963 0.78469419 337
2.4785328 1.168345 0.843566 310.5
2.0532143 1.2503079 0.82028949 514
2.1414874 1.2044033 0.76550496 419
2.5038619 1.264878 0.79451966 327
2.096849 1.3772503 0.78056836 325
2.1317339 1.3921375 0.8459844 276.5
2.0662608 1.1412234 0.95928967 456.75
2.1697633 1.133193 0.97219247 391.28574
2.4592726 1.1545308 0.93394625 315
2.0647385 1.2601856 0.96375102 489
2.107213 1.2761397 0.99932867 535
2.4146953 1.2205087 0.96568775 322.5
2.589632 1.316793 0.91252947 263
2.0853987 1.3561462 1.0093904 356
2.1126194 1.3747066 0.95889795 430.33334
2.0015388 1.0422086 1.1962011 411
2.0287941 1.143656 1.1180046 359.14288
2.2182374 1.1218508 1.1047281 375.80002
2.2584941 1.0973573 1.182622 481
2.0307236 1.2744858 1.1232038 401
2.1769304 1.2213858 1.1098062 359.5
2.4228039 1.2291324 1.0978062 308
2.0955775 1.3598449 1.1018331 345
2.1307182 1.4383783 1.1178939 266.66669
2.041743 0.89959079 1.3241831 525
2.0676439 0.98823941 1.3089038 402
2.1325088 1.0021008 1.2863891 315
2.0367537 1.1149811 1.2607918 369
2.2004561 1.1621836 1.2743225 405.66669
2.3541553 1.145877 1.2834284 307
2.0425072 1.2595682 1.2729433 408.33334
2.1634226 1.2310352 1.2828193 336
2.4765823 1.2628931 1.2164248 275
2.0806227 1.4146699 1.2002089 377
2.1182978 1.4123819 1.2403862 285
2.0716939 1.1238852 1.3770736 332.66669
2.1789942 1.1770828 1.45207 289
2.3029122 1.1520941 1.4602674 283.33334
2.0957413 1.2509786 1.3891087 317
2.1835144 1.2427901 1.4300865 326.20001
2.2588518 1.2262869 1.4995677 420
2.4204383 1.2367566 1.3876754 384
2.1708846 1.4229872 1.3794094 212.5
2.2146964 1.1800909 1.5694684 251
2.3479648 1.1118091 1.5791057 321.75
2.4715633 1.1504221 1.5685256 307
2.2216678 1.2340639 1.5554966 346.66669
2.3281007 1.2245419 1.5803522 298.5
2.4081099 1.2379444 1.6201435 287
1.9333251 1.6271241 1.6119138 322
2.3088553 1.6262648 1.6409037 317
1.8701828 1.7278171 1.6296216 299
2.0212131 1.6905016 1.6342654 295.66669
2.2295878 1.6565866 1.6220975 339
2.3026016 1.7354028 1.6111746 304.5
2.3593993 1.193657 1.6873866 273
2.2674315 1.2142109 1.6506094 269
2.5625784 1.2448825 1.7986569 252
2.3927548 1.3540802 1.7522494 249
2.451776 1.4528637 1.7754753 316.66669
1.7281542 1.5595608 1.7096657 281.5
1.8927683 1.6112964 1.7451898 290.75
1.999315 1.6181556 1.7441689 285.5
2.2225564 1.603542 1.7234439 323.80002
2.3179121 1.5913435 1.7347218 299.88889
2.4689975 1.5511771 1.7622257 274.20001
1.7879755 1.6743765 1.6890504 270
1.8662645 1.6890857 1.6974576 296.14288
2.0067012 1.6637042 1.6778309 286
2.1938486 1.7126087 1.7374094 303.36365
2.2535276 1.7712189 1.6703647 311
2.3924727 1.0380794 1.8811131 355
2.469902 1.0055311 1.8949156 342.57144
2.449321 1.1318439 1.8706819 331.30771
2.4885225 1.2747232 1.893151 296.00003
2.5601068 1.3319147 1.8479407 302
2.0920353 1.4835376 1.9039605 319
2.1804307 1.4791088 1.9010501 299
2.3478124 1.4405398 1.9166481 266.16669
2.4570985 1.4091367 1.8749026 268.36841
2.6239238 1.3652979 1.8075913 267
1.8719132 1.5422339 1.8087094 299
2.0431118 1.584905 1.8838969 305.28574
2.1786919 1.5795777 1.861806 303.5
2.3318472 1.5518057 1.8794906 264.83334
2.4382877 1.5702949 1.8439612 261
2.0621433 1.6648769 1.8327661 307
2.167594 1.6886497 1.8296535 284.14288
2.4132249 1.1875601 1.9584304 309
2.3637462 1.3039832 1.95434 288
2.4227583 1.282288 1.9785695 285
2.3379207 1.4278681 1.970116 266.42859
2.2899451 1.5087942 1.9776865 267
1.3499563 -0.34202957 0.29836416 879
1.4129878 -0.34035972 0.25443909 720.96771
1.5438375 -0.3178457 0.22966729 706.11115
1.2788188 -0.21894345 0.27429557 1047
1.43507 -0.25221595 0.25447765 527.79999
1.5434356 -0.20305789 0.25211188 882.33337
1.6111746 -0.071704067 0.2516093 910.6875
1.6841451 -0.080222391 0.21741669 621.71429
1.5991812 0.021317676 0.26052129 993
1.7084234 0.039359249 0.23181748 400
1.8185782 0.06369181 0.24459285 546.5
1.4245853 -0.33775929 0.35515156 814.6875
1.5126522 -0.31872955 0.37524989 872.14288
1.30035 -0.21470743 0.3814939 1064.4783
1.4363351 -0.23518844 0.37223083 956.35999
1.5256171 -0.19471841 0.3423782 912.83337
1.2963386 -0.11583612 0.40299788 924.5
1.4238241 -0.11948485 0.37781531 779
1.5880902 -0.075154044 0.3669447 932.30609
1.6654495 -0.13527755 0.35497719 777
1.5896003 0.023697184 0.36892974 951.22223
1.696134 0.056321248 0.37620002 680
1.4722809 -0.31431973 0.48010606 780.5
1.5407873 -0.34721071 0.51031858 578
1.1671032 -0.18283178 0.55477607 975.66669
1.2746602 -0.21491891 0.53308672 935.875
1.4206262 -0.20938788 0.5155707 927.30774
1.5006104 -0.18656214 0.57587165 759
1.1677513 -0.12726103 0.58353883 917.5
1.2857811 -0.10952427 0.52341378 830.5
1.44612 -0.078781985 0.54511023 829.28577
1.5629133 -0.06152131 0.51585245 898.79309
1.6650357 -0.0018740656 0.5682106 801
1.5796425 0.02796801 0.51749158 856.28577
1.7144794 0.065229848 0.5214954 647.79999
1.8878088 0.099359959 0.47147524 364.5
1.5840006 -0.34543401 0.71912026 381
1.1654537 -0.18315324 0.6498965 783
1.2627425 -0.20556246 0.67018086 668.37933
1.3699955 -0.22805957 0.68837237 515.66669
1.1642894 -0.13097236 0.63959664 892.20001
1.2850547 -0.13180265 0.68278646 535.66669
1.4345411 -0.073781766 0.68492842 848.83783
1.5245847 -0.055030297 0.64127254 909.79999
1.4646684 0.028209331 0.70389557 819
1.6046259 0.02124154 0.67556834 734.55554
1.6632926 0.03233679 0.619892 763
1.9014474 0.093339182 0.60570049 267
1.4356232 -0.3103587 0.82954317 483
1.5200095 -0.32552063 0.83545697 487
1.2841847 -0.20857961 0.8297137 665.89655
1.3930253 -0.21681806 0.82699651 710.21429
1.2491955 -0.14019762 0.78349864 473
1.4274915 -0.077195197 0.82667661 779.30188
1.4376405 0.044783607 0.84426951 561.57147
1.5478547 0.037494674 0.83060527 502.50003
1.3257486 -0.34596902 1.0202804 463.25
1.4120059 -0.33338198 0.95706934 497.06668
1.6234403 -0.34949806 0.92898142 273
1.2875425 -0.23104461 0.94614172 643.33331
1.4154196 -0.20691472 0.99502081 798.21051
1.3388438 -0.060306735 1.0461788 827
1.4078001 -0.077429935 0.97524303 714.64178
1.4465733 0.043308087 0.95549524 509
1.5471872 0.015651381 0.97228056 424.42859
1.739994 0.088456005 1.0301828 391
1.8422172 0.069387943 1.0390884 313
1.3402722 -0.35405487 1.0778315 555
1.4086443 -0.3501175 1.0768723 623.25
1.5927117 -0.40513185 1.1133492 499
1.6597155 -0.41364574 1.1499523 459
1.3373113 -0.21208259 1.0591378 931
1.4237505 -0.23453344 1.077839 718.88892
1.4384578 -0.087231584 1.082576 521.35297
1.5580406 -0.011861277 1.1177887 313
1.5758067 0.083120875 1.1172781 393.375
1.7051694 0.084308617 1.0972402 384.33334
1.4729629 0.16675231 1.1402826 443.5
1.5861499 0.16802563 1.1649317 319.5
1.6519985 0.18230429 1.1889303 267
1.7489321 0.030164 1.239078 304.33334
