# .PCD v0.7 - Point Cloud Data file format
VERSION 0.7
FIELDS x y z intensity
SIZE 4 4 4 4
TYPE F F F F
COUNT 1 1 1 1
WIDTH 1
HEIGHT 54
VIEWPOINT 0 0 0 1 0 0 0
POINTS 54
DATA ascii
3.385577 8.3880224 4.7312827 364
4.7471352 -0.32693911 0.044992313 298.5
4.8397012 -0.34718353 0.086280219 317.25
4.5483208 -0.21536982 0.088580087 312.66669
4.5488462 -0.11619154 0.08856158 356
4.7518778 -0.38026083 0.23855887 374.80002
4.8370452 -0.39096421 0.24440345 394
4.5550404 -0.21539606 0.25085127 405
4.5774269 -0.1043549 0.2502096 386
4.6479077 -0.41849229 0.4499405 382
4.7075629 -0.3513819 0.38663608 370.5
4.5853395 -0.21339303 0.39232147 350.33334
4.6098795 -0.097522594 0.36475909 140
4.6067152 -0.4092201 0.5371902 380
4.6948462 -0.35284233 0.49540165 406
4.6082449 -0.24488364 0.53631938 336.33334
4.6887803 -0.23204614 0.45007771 418
4.6391082 -0.087961167 0.53716314 286
4.7297697 -0.46627742 0.68708432 380
4.5920668 -0.37690932 0.67572433 307.25
4.4880033 -0.28145894 0.71370387 323
4.5957069 -0.23230155 0.66524607 286.39999
4.6312966 -0.082713768 0.629094 312
4.8266397 -0.11874584 0.74187028 140
4.6067934 -0.46047831 0.82534218 210
4.469821 -0.38079652 0.80941451 2575
4.5496721 -0.35776368 0.81777275 311
4.4657373 -0.22777113 0.80742377 2621
4.5159893 -0.24192712 0.81295532 319
4.7797036 -0.12262495 0.84089947 359
4.8473477 -0.076136529 0.84811103 349
5.0007997 -0.084205903 0.75674498 243
4.560545 -0.46248087 0.973414 311
4.4464369 -0.35369131 0.90521276 2471
4.5612984 -0.37680751 0.98978329 315.66669
4.4494209 -0.24276258 0.90428674 2649
4.5785561 -0.23177944 0.98375368 307.80002
4.7468882 -0.098010592 0.99606228 319
4.5639739 -0.46978977 1.133062 305
4.4920449 -0.36722031 1.1179421 1805
4.5636477 -0.37295306 1.1309565 317
4.5750556 -0.23181987 1.1309212 672.33337
4.6515112 -0.095779628 1.1436297 314
4.6250992 -0.48112777 1.254601 305
4.4592094 -0.3684113 1.2178897 2657
4.6463823 -0.37526438 1.2564656 297
4.5839949 -0.24030656 1.2687887 426
4.5800672 -0.13657926 1.2394265 1967
4.7445002 -0.053645611 1.2728933 257
4.5985599 -0.38533437 1.3577734 416
4.6749935 -0.37232468 1.3751097 360
4.6198111 -0.26766542 1.416585 362
4.7747188 -0.3752282 1.5148755 263
4.7089071 -0.27275002 1.5530975 260
