# .PCD v0.7 - Point Cloud Data file format
VERSION 0.7
FIELDS x y z intensity
SIZE 4 4 4 4
TYPE F F F F
COUNT 1 1 1 1
WIDTH 1
HEIGHT 187
VIEWPOINT 0 0 0 1 0 0 0
POINTS 187
DATA ascii
4.2787261 -2.8729291 0.14878123 267
-0.06473799 1.4802577 0.26703641 514.60004
0.012697548 1.4873621 0.27698731 474.33334
-0.19415477 1.5430751 0.24181189 344
-0.035222977 1.5883068 0.27128375 301
0.012758593 1.6020665 0.26144215 406.33334
-0.0090444237 1.7345549 0.23759833 423
0.074898973 1.6994684 0.25231808 406.7619
-0.052503746 1.4811968 0.37244844 516.5
0.022278365 1.4821204 0.3899211 552.33331
-0.063198999 1.5207903 0.34255463 468.5
0.032919869 1.5332665 0.34133896 437.85715
0.15451343 1.6397575 0.41595483 465
0.11033023 1.7025161 0.36428872 385.33334
0.21092542 1.7075702 0.39283696 398.15387
0.042509019 1.8576088 0.39383149 267
0.23967162 1.8195213 0.37295187 238
-0.043584023 1.4780409 0.52324861 526.60004
0.048589513 1.4663428 0.53131771 665.83337
-0.046570197 1.5400929 0.56829238 329
0.104413 1.612612 0.55608106 550
0.16513015 1.6406428 0.53400362 545
0.10963525 1.6831172 0.49591547 490.09091
0.20498422 1.6968867 0.5148322 438.71429
0.22456276 1.8369391 0.507671 249
-0.0099998116 1.1886715 0.68756366 515
0.10161521 1.3252749 0.73172814 522
0.21656387 1.3283925 0.73158956 417
-0.044036601 1.4671924 0.6623528 486.57144
0.056412648 1.4607569 0.67007315 603.82758
0.15820213 1.4704922 0.72991967 522
0.12361796 1.5606129 0.65541422 423
0.1774236 1.5506598 0.69482934 451.125
0.14092785 1.692471 0.6381942 483
0.17768185 1.6919631 0.65023214 444.33334
0.13385209 1.3138256 0.82036352 572
0.23072419 1.2996607 0.8193996 544.27277
-0.044612188 1.4652867 0.81092972 471
0.057337221 1.4557408 0.82059014 659.79999
0.17380206 1.4609431 0.79616499 475.66669
-0.076352626 1.5268492 0.86534309 390.33334
0.12017678 1.5125481 0.80293196 477
0.1648045 1.5558178 0.84566605 576.60004
0.18837532 1.6672924 0.84447014 401.5
0.090625606 1.3356274 0.98602527 442.20001
0.20337252 1.321347 0.91829997 550
-0.035931271 1.474303 0.99212569 517.33337
0.054698806 1.418339 0.96075314 503
-0.068796158 1.5134929 0.96850425 486.39999
0.12888446 1.5519686 0.98641419 570
0.058006197 1.3394158 1.1084042 431
-0.034504656 1.4259279 1.1159486 417.66666
0.050399531 1.3860906 1.1227636 440.14285
-0.086763375 1.545797 1.1353463 315.5
0.12078597 1.564781 1.1283779 404.25
0.30509061 1.643929 1.1779777 679
0.1415906 1.6589015 1.109658 363
0.2309934 1.6932248 1.1342504 424.78574
0.31384525 1.6675017 1.1476947 617
0.26897857 1.8095701 1.1236143 267
-0.026216675 1.4530834 1.2631501 338.60001
0.049183778 1.4329706 1.2525606 417.14288
-0.083296321 1.5365794 1.2461178 302.66669
0.10331379 1.5810158 1.2764533 413
0.26481414 1.6415322 1.2182132 373
0.35168976 1.6375275 1.2133886 633
0.13682394 1.7094558 1.2815557 313.5
0.26814908 1.6992096 1.2878668 297.75
0.3582654 1.7590636 1.23472 271
0.16512471 1.8105046 1.2236382 295
-0.015338084 1.6151354 1.4474114 315.33334
0.086026721 1.6004905 1.4229134 346.95834
0.16313015 1.6034559 1.4255393 329.60001
-0.041451216 1.6634715 1.463794 406
0.13074434 1.7401936 1.4303439 255
0.22557744 1.6985792 1.4312506 282
0.12765756 1.8090638 1.3583665 281
0.043599904 1.6418378 1.5221823 273
0.0003502667 1.6743042 1.5088401 269
0.16854459 1.8628838 1.5661001 503
0.19706018 1.9098538 1.6633543 427
-2.0555069 7.4205918 0.11497352 206
-1.8229471 7.3972464 0.06611377 203
-1.7085059 7.4726338 0.10502821 242
-2.1359196 7.5220408 0.11282313 50
-2.0321932 7.5657845 0.017686218 160
-1.9461844 7.5257554 0.10846916 222
-1.7314148 7.3160081 0.20922831 279
-2.0697422 7.400259 0.21589082 203
-1.8869944 7.3674974 0.21200119 194
-1.7767644 7.1669531 0.43749347 262
-1.57491 7.1916928 0.43055823 228
-2.2221186 7.3161807 0.33318919 194
-2.0200603 7.2690501 0.40661019 228
-1.8488624 7.3035603 0.38086587 250
-1.7824056 7.2042966 0.32136101 224
-1.6077617 7.252296 0.35399365 265.33334
-2.0653157 7.3824015 0.32767183 220
-1.9925516 7.1523948 0.57165939 222
-1.7810948 7.1516266 0.56327164 202
-1.5728018 7.1577363 0.55524218 212
-2.2084193 7.2531452 0.51735508 274
-1.990303 7.229619 0.57299042 230
-1.7474594 7.0333567 0.69260627 190
-2.1791954 7.1471262 0.71623051 274
-1.9762105 7.1572704 0.70730656 259
-1.7700753 7.1463847 0.69767702 250
-1.5720643 7.1466374 0.68899697 186
-2.1867695 7.1567173 0.86258113 294
-1.9766822 7.0752187 0.84728956 250
-1.9381583 7.151196 0.84942991 222
-1.7456195 7.1087055 0.8374505 266
-1.564791 7.1032863 0.82830179 234
-2.1838925 7.1366601 1.015036 306
-1.9851408 7.089632 0.99998534 266
-1.8998454 7.0726724 0.99386001 252
-1.7228453 7.0774727 0.98430848 262
-1.5629011 7.0819221 0.97595119 256
-2.1798668 7.1140547 1.1734918 276
-2.0006714 7.1269674 1.1629963 238
-1.8910513 7.0906696 1.1526182 264
-1.7019624 7.0533214 1.1373856 292
-1.5606002 7.0599885 1.1295459 300
-1.8626866 7.04495 1.3098202 278
-2.1995072 7.1607747 1.3472148 286
-2.0147171 7.1602159 1.3337576 272
-1.6929231 7.0722375 1.3014163 294
-1.5732965 7.096693 1.2963912 288
-1.8601139 7.0851455 1.4851445 244
-1.6915765 7.1201806 1.4774244 286
-1.5983332 7.1815195 1.4792221 262
-2.2160923 7.1991453 1.528771 264
-2.0370603 7.2200055 1.5172865 254
-1.867924 7.1612329 1.6744326 238
-1.6940222 7.1833229 1.6639001 240
4.7715335 -1.0352889 0.13611963 356
4.8505211 -1.0075371 0.044668309 266
4.6423988 -0.80488425 0.021285564 314
4.7304101 -0.81251222 0.10579294 270
4.5485048 -0.650913 0.087150209 255.66667
4.7623382 -0.98033881 0.24709682 356
4.7570753 -0.80449033 0.25951526 325
4.7126207 -0.67573953 0.2349582 292
4.7468014 -1.0441607 0.36967745 370
4.8729639 -0.9449048 0.36920148 339
4.7698011 -0.80910331 0.36796004 378
4.7752399 -0.69128984 0.3672514 380
4.7619686 -1.0548403 0.50502563 400
4.8527718 -0.93967783 0.50612813 383
4.8784428 -0.83604532 0.50591445 295.5
4.87222 -0.71359193 0.50404131 364
4.7026019 -1.0524591 0.74585009 315
4.736485 -1.0032687 0.71390569 339.33334
4.8774662 -0.94360244 0.65416491 259
4.7948065 -0.83281106 0.74809283 307
4.9052196 -0.84826297 0.65410101 255
4.8702521 -0.72065639 0.64981413 414
4.6948061 -0.99633932 0.84733653 1165.6667
4.8685803 -0.90843999 0.75598276 297
4.7741704 -0.83372146 0.85102594 501
4.8254342 -0.89374036 0.85808492 419
4.9964237 -0.81459951 0.76466334 412
4.8743768 -0.70796609 0.78744006 396
5.0433125 -0.68602079 0.87637186 265
4.7274175 -1.0674877 0.96096265 311
4.7271652 -0.97331131 0.95742553 316
4.9237528 -0.9067176 0.98050642 289
4.7655606 -0.83679348 0.95785129 779
5.0363908 -0.80886191 0.99217737 295
4.9128184 -0.74199688 0.97428167 313
5.0396371 -0.67934114 0.9892633 255
4.6413999 -1.0557359 1.1687359 309
4.6160522 -1.0452261 1.0535313 307
4.7434006 -0.97573751 1.1261704 399.5
4.9449339 -0.90449858 1.0978477 309
4.8300142 -0.85583895 1.1355296 319
5.0348129 -0.80227977 1.1081489 285
4.8665457 -0.74177706 1.1376147 403
4.7016449 -1.0747267 1.2950574 301
4.7993183 -0.98269826 1.309618 307
4.9287095 -1.0189524 1.3374531 263
5.0122056 -0.91106355 1.2274473 287
4.9067416 -0.8160702 1.3236117 303.5
4.8851986 -1.1256196 1.4558603 305
4.8972645 -1.0071262 1.4514366 265
4.7963591 -1.1067146 1.5550827 309
4.8400288 -1.0007341 1.5589623 422
