# .PCD v0.7 - Point Cloud Data file format
VERSION 0.7
FIELDS x y z intensity
SIZE 4 4 4 4
TYPE F F F F
COUNT 1 1 1 1
WIDTH 1
HEIGHT 220
VIEWPOINT 0 0 0 1 0 0 0
POINTS 220
DATA ascii
-0.36202827 4.3232193 0.14459492 516
0.58119452 1.5751258 0.25537908 434.18182
0.65807176 1.5679226 0.24973355 446.625
0.27495542 1.7223111 0.23604649 371.5
0.36784515 1.7160019 0.25718737 424.625
0.57995462 1.6767416 0.27053589 287
0.74158823 1.6919776 0.21050008 265
0.27001268 1.8175167 0.27655587 317
0.38839144 1.8569025 0.25828212 312.66669
0.54288894 1.5620986 0.38605124 420.1579
0.63604015 1.5598083 0.36185831 416.5
0.28150824 1.7007902 0.37109381 368.66669
0.37878558 1.7138978 0.3781656 409.76926
0.52850604 1.705689 0.39309946 327
0.27909887 1.8354839 0.35637614 298.60001
0.49999779 1.8145782 0.42829576 292
0.54448402 1.4936875 0.56305063 557.25
0.44434577 1.6148421 0.57691109 415
0.54197192 1.5277923 0.50467062 476.26315
0.63510275 1.542841 0.52652317 436.63638
0.28340426 1.7644582 0.46726787 327.5
0.38761213 1.7078968 0.53395838 456.5
0.4795441 1.7030618 0.52564377 436.27274
0.54794687 1.4819214 0.69042867 616.77777
0.63330913 1.492147 0.66985649 567.66669
0.4103477 1.5874704 0.68700558 485.18182
0.50769937 1.5407202 0.66775149 477.58823
0.67950994 1.5462977 0.66764814 476.45456
0.39971504 1.7060379 0.6631043 427.75
0.76842952 1.7191447 0.63187528 271
0.37138274 1.8066188 0.64900827 319
0.54455084 1.4894321 0.82150131 638.55554
0.63216364 1.4932525 0.7889061 673
0.41442931 1.5808358 0.82173282 549
0.52293342 1.5251762 0.82798135 616
0.67976248 1.5360583 0.83673477 540.5
0.40866983 1.7088273 0.8485688 454.5
0.71643603 1.6557078 0.83827782 255
0.41788229 1.8273108 0.78851026 291
0.55884355 1.4460648 1.002117 551.79999
0.65981919 1.443025 1.009351 511.125
0.4020859 1.6007245 0.95755112 568.42859
0.51752055 1.5439653 0.97035348 610.30774
0.67836493 1.5292971 0.95734251 605.93335
0.40097299 1.6635858 0.9694581 399
0.41937208 1.3197 1.1057407 604.33337
0.4168154 1.4194553 1.1135118 447
0.52289844 1.4412283 1.1237514 484.28
0.65904617 1.4491568 1.1287925 491.78262
0.4162136 1.5884579 1.0810498 571
0.49638218 1.5646793 1.1136785 561.28577
0.71309185 1.5442638 1.1415807 593
1.1707598 1.6008146 1.1928911 303
0.39638013 1.7392337 1.0666763 278
1.0463166 1.7648414 1.1679683 317
1.1032326 1.7332103 1.1525927 316.42859
1.0039959 1.860271 1.1317166 325.5
1.0660644 1.8641853 1.1299796 297
0.94663322 1.9796621 1.1483059 313
0.55008709 1.4682519 1.2332014 469
0.65984774 1.4503593 1.2371975 490.8667
1.1545975 1.4458452 1.3064693 312.25
0.41521636 1.6143744 1.3067658 471
0.52126002 1.5598122 1.30907 436.14288
0.62874877 1.5691695 1.3374577 444
1.1278372 1.5660865 1.2918913 307.39999
0.51328719 1.6540051 1.2606778 479
1.1221768 1.7281008 1.2759447 308.27274
0.40466368 1.9073797 1.2608744 435
0.51250267 1.8193253 1.2196028 503
1.0014952 1.8780313 1.2722037 310.33334
1.0894376 1.8342366 1.2930793 301.28574
0.9446317 1.9929433 1.2764205 318.11111
1.1176019 1.4392724 1.4111216 311.34784
0.41557881 1.5656896 1.3820152 357.5
0.5322578 1.5750852 1.4056728 332.76471
0.6317181 1.590564 1.4026397 334.85715
1.1082655 1.5655336 1.4269605 310.06668
0.37741089 1.6818721 1.4995081 361
0.58322418 1.6536965 1.400445 301
0.63432688 1.654866 1.4766419 259
1.0210034 1.768116 1.4416568 349.28574
1.0986944 1.7352422 1.4404076 334.125
0.87487626 1.8933213 1.4632578 367
0.9752863 1.8730472 1.4244747 354.20001
1.0973676 1.8325669 1.3866705 300.60001
0.424272 2.0362732 1.4295473 414.33334
0.84075993 1.9538978 1.4712077 326
0.93177545 1.9774197 1.3862547 341.5
0.44018561 2.1910625 1.3962497 245
0.54991794 2.1049337 1.4092587 367
0.99793607 1.6333568 1.5657293 370
1.0617965 1.5770966 1.5267462 321.39999
0.38424593 1.6558378 1.5065805 307
0.48460019 1.7309946 1.5372028 333
0.70206869 1.7435722 1.5204737 355
0.88515103 1.7934093 1.6467196 329
0.98182029 1.7381433 1.5531133 316.39999
1.0839421 1.7266544 1.5417384 301.20001
0.25189182 1.8986126 1.6197093 338.75
0.38514769 1.9143453 1.6212378 356.5
0.50228626 1.8910699 1.5894063 374
0.68131441 1.8687528 1.5620427 330.33334
0.83281356 1.8689989 1.576732 358.70001
0.93837357 1.850458 1.5642481 345.625
0.26452592 2.0260913 1.6327035 285
0.40391275 1.9716339 1.5679381 381.5
0.50221407 1.9898118 1.5642887 337.77777
0.93510509 1.7985806 1.6593612 303
0.25407565 1.8777726 1.6658899 317
0.35345584 1.88901 1.6699669 319
0.74662912 1.8988755 1.667838 303
0.8067435 1.8726411 1.6695431 286.33334
0.34641746 1.9569556 1.6882337 279
2.8436022 -2.569164 0.073274761 323
2.9111829 -2.6100125 0.062933356 308.20001
2.5744932 -2.5393441 0.13288555 301
2.9006605 -2.7333062 0.21276696 511.5
2.8277073 -2.6451709 0.21461511 336
2.9003637 -2.5973949 0.1996471 309
2.6004996 -2.4970527 0.23724155 323
2.7977166 -2.4973588 0.24461648 316
2.9239397 -2.499583 0.23982245 308
2.8294747 -2.6589415 0.40100345 311
2.8830726 -2.6269984 0.35494012 303.66669
2.6118131 -2.478056 0.36698222 327.5
2.7912679 -2.4753976 0.36446029 317
2.8963797 -2.4582329 0.36271712 318
2.6397481 -2.5538909 0.53723055 347
2.8262196 -2.6609979 0.50929451 317
2.8948464 -2.604815 0.50753403 317
2.6459043 -2.4773369 0.48687333 337
2.7805367 -2.4489696 0.49865836 340
2.9092522 -2.4544539 0.50074703 325
2.8849781 -2.867382 0.72710901 267
2.7222059 -2.8345969 0.71674776 243
2.8956258 -2.7419517 0.71658671 293
2.6577215 -2.5558136 0.68881917 357
2.7699833 -2.6453629 0.62189728 329
2.8971205 -2.6138496 0.66472316 317
2.786149 -2.4982905 0.6510523 348
2.9315429 -2.4715381 0.66913861 327
3.1039019 -2.4605544 0.70424318 315.5
2.6931148 -2.8041892 0.79757988 319
2.7885013 -2.8156574 0.86399192 286.33334
2.8385339 -2.6457574 0.847624 313.66669
2.8510818 -2.5727806 0.78326243 353
2.64605 -2.530108 0.80638736 344
2.7625246 -2.4579148 0.8068043 340.5
2.9043915 -2.4266133 0.82317871 326.80002
3.0083771 -2.4400055 0.78117776 313
3.154356 -2.4485207 0.83733773 308
2.4921207 -2.5785525 0.96616882 275
2.6870937 -2.5602911 0.93946314 271
2.8327241 -2.5618386 0.99878401 321
2.5431454 -2.5010269 0.9174546 313
2.6367502 -2.4891331 0.96725816 320
2.7402859 -2.4401846 0.95668077 350.33334
2.9036975 -2.4400966 0.98969698 321.5
3.0859268 -2.5153127 0.97425079 295
3.1945221 -2.4873419 0.9825983 297
2.7722843 -2.3875306 1.010085 343
2.7564497 -2.7414734 1.156744 297
2.7979007 -2.6539381 1.1004319 312.5
2.6363516 -2.4843092 1.1400549 339.5
2.7720242 -2.4365611 1.1057425 339
2.8678043 -2.4511282 1.1214262 162
3.0277927 -2.4663291 1.0532469 311
2.6139922 -2.7294986 1.3226599 424
2.6764264 -2.658586 1.3168656 285
2.7398026 -2.6247659 1.2725394 314.25
2.8702183 -2.6077337 1.2902358 283
2.8277788 -2.5441499 1.2240789 239
2.7056522 -3.0126519 1.400582 265
2.2405648 -2.8507411 1.4796791 263
2.2729459 -2.8950238 1.4048318 315
2.4958935 -2.9142003 1.4193442 296.5
2.63111 -2.8933039 1.427287 309.66669
2.763155 -2.8991802 1.3836606 305
2.8554451 -2.8650398 1.3906868 309
2.6809137 -2.810111 1.4480965 307
2.7609599 -2.8168848 1.4637079 307
2.9764643 -2.7185221 1.4799066 253
2.087003 -2.6309202 1.4764367 289
2.1849334 -2.6237073 1.4916831 273
2.6715417 -2.655792 1.4093028 271
2.7696121 -2.6166711 1.4178841 322.5
2.9319041 -2.6336796 1.4025533 303
3.0592809 -2.6334827 1.376412 303
2.2248023 -2.546483 1.4759558 231
2.8410003 -2.4363866 1.4835515 293
2.9450805 -2.4833455 1.4214904 305.66669
3.0755353 -2.5209181 1.4057326 307
2.3328471 -2.3067343 1.4551542 295
2.8707974 -2.3391254 1.4671073 303
3.0288756 -2.3604221 1.4121215 273
2.4522119 -2.2207725 1.4712036 305
2.5716629 -2.150162 1.4399728 388
2.7701266 -2.2346191 1.4206278 415
2.8966866 -2.2498996 1.4524375 311
3.016927 -2.2393322 1.3847213 249
2.3997338 -2.0884104 1.3841301 335
2.3624179 -2.8643081 1.5034412 291
2.484206 -2.7893319 1.5406069 277.80002
2.6237774 -2.7715259 1.5245374 298.33334
2.7834187 -2.731468 1.5448254 291
2.3451905 -2.5739727 1.5072628 253
2.606606 -2.6581197 1.5844222 354.5
2.7683892 -2.6137085 1.559638 278
2.9296627 -2.6742558 1.5599878 299
2.1814201 -2.4256198 1.513117 368
2.340457 -2.4201632 1.5456682 443
2.6759787 -2.4854221 1.5517433 293
2.840385 -2.5295041 1.5058978 301
2.8937781 -2.4597528 1.5004703 303
2.2462466 -2.3778033 1.5120287 284
2.2669289 -2.3364444 1.583956 326
2.4539115 -2.3075185 1.5380876 289
2.610224 -2.3578932 1.5900837 243
2.7503116 -2.2922716 1.5183698 283
