# .PCD v0.7 - Point Cloud Data file format
VERSION 0.7
FIELDS x y z intensity
SIZE 4 4 4 4
TYPE F F F F
COUNT 1 1 1 1
WIDTH 1
HEIGHT 97
VIEWPOINT 0 0 0 1 0 0 0
POINTS 97
DATA ascii
0.21475172 -3.1519384 0.11981305 247
4.8652601 3.9096365 0.027372867 192
4.5290775 4.0784426 0.08513172 228
4.6929536 3.827934 0.21359386 236
4.8298831 3.8925157 0.20928662 262
4.4684386 3.9763234 0.2210696 130
4.5503654 4.0802493 0.21859722 278
4.5124564 3.8672581 0.42043871 172
4.7123804 3.819109 0.38282621 242
4.8127937 3.8840718 0.3107273 312
4.490942 4.0065947 0.37141359 218
4.5212369 4.0335026 0.37164429 276
4.6189742 3.8874311 0.53221422 146
4.8133407 3.8961861 0.53420168 288
4.5544238 3.9111111 0.53259957 281
4.5657754 4.0712023 0.53886032 231
4.5363283 3.8999827 0.64920473 293
4.7973251 3.8689053 0.65376127 257
4.9722023 3.8389258 0.65664113 271
4.6528993 3.9050968 0.6521486 279
4.8424478 3.9267335 0.65775353 283
4.6986761 3.8517365 0.77485466 292
4.9850855 3.8549292 0.78672433 275
4.5325375 3.9017246 0.7716068 293
4.8466849 3.9357884 0.78615117 289
5.1581411 3.9091642 0.79736447 271
4.6526022 3.7081275 1.0215572 289
4.6290112 3.8518777 0.9665789 282
4.8466129 3.7942958 0.95340204 286.33334
5.098042 3.8483098 0.92699683 214
4.5528641 3.92787 0.9686349 288
4.8546185 3.9478836 0.92045462 293
4.9902263 3.7497566 1.0511045 241
4.6560802 3.8562367 1.1734924 263
4.5760961 3.9564579 1.1775324 273
4.8644443 3.9614818 1.06092 283
4.6801696 3.8642416 1.3181393 220
4.8809333 3.8748987 1.3416022 52
4.5654426 3.9513562 1.3169618 265
4.8864694 3.9854894 1.2086995 283
4.9825969 3.9738591 1.2163143 268
5.1634784 4.0169654 1.237868 188
5.294538 3.9780085 1.2462736 380
4.8079844 4.3439593 1.2420435 332
4.9003568 3.8778687 1.4934775 240
4.7397981 3.9030719 1.4762927 302
4.8464718 3.9581985 1.4225231 234.5
5.0778441 3.9517279 1.373098 162
4.6698699 4.0521164 1.4890417 260
4.7562637 4.299386 1.3825308 142
4.9184871 4.3018522 1.3997785 272
4.7968469 3.9392686 1.6402984 182
4.6716104 4.222991 1.5145913 268
4.7143312 -0.5267722 0.077650011 352.33334
4.7019787 -0.42639989 0.078563407 340.33334
5.0003338 -0.21832454 0.092497051 343.25
4.7274079 -0.53827918 0.20916273 338
4.7497702 -0.43041086 0.24654642 380.5
4.9678292 -0.21659525 0.24105024 355.5
4.7702723 -0.44246164 0.36607379 394
4.8410158 -0.37207466 0.36608016 391
4.9280243 -0.21458353 0.36598217 355
5.1245909 -0.60755581 0.56079841 428
4.8424916 -0.45710379 0.50104034 415
4.8670807 -0.35856652 0.50133461 332.5
4.9001088 -0.21308172 0.50141001 336.25
5.1273589 -0.61316156 0.6645385 257
4.8697357 -0.46987709 0.69762307 296
4.7424006 -0.37189102 0.73630852 2438
4.8262548 -0.37930802 0.64304745 306
4.7541094 -0.28884125 0.73656768 2905
4.854876 -0.22859858 0.68434554 311.20001
5.0607576 -0.6124723 0.82128549 279
4.8016844 -0.47029093 0.84654081 645
5.0521431 -0.56454241 0.81955349 284
4.7773314 -0.35470536 0.8423999 663
4.8839669 -0.40377569 0.85453224 303
4.7411404 -0.23953013 0.83738387 2229
4.8432312 -0.23168257 0.84846407 310
4.9820743 -0.60999292 0.9801718 396
4.9225874 -0.48785424 0.96999145 307
4.9956045 -0.54889011 0.98070121 317
4.8678513 -0.38180229 0.96113354 312
4.859632 -0.23507892 0.9584446 282.33334
4.917388 -0.51572889 1.1396601 799
4.9524055 -0.49601239 1.0874338 309
4.7963343 -0.38495639 1.061134 2267
4.8539095 -0.37324038 1.1264625 561
4.7455292 -0.2634114 1.1065849 2449
4.8471012 -0.25536269 1.0673093 301
4.9452128 -0.53122711 1.2030588 394
4.935298 -0.38747537 1.316052 316
4.9706616 -0.39109761 1.2640264 360.5
5.0466595 -0.28020635 1.296984 283.66669
4.9634418 -0.39489028 1.4421953 394
4.9833326 -0.27407774 1.4444962 265.5
4.9455767 -0.28146568 1.5567843 334
