# .PCD v0.7 - Point Cloud Data file format
VERSION 0.7
FIELDS x y z intensity
SIZE 4 4 4 4
TYPE F F F F
COUNT 1 1 1 1
WIDTH 1
HEIGHT 119
VIEWPOINT 0 0 0 1 0 0 0
POINTS 119
DATA ascii
0.012651056 4.6455183 0.070982486 406
1.5274271 -2.7143264 0.099417441 313
1.153971 -2.5625093 0.097183071 308
1.2571476 -2.6222637 0.13141102 311
1.4358873 -2.6702213 0.094361104 318
1.5303419 -2.6834376 0.048171252 309
1.3468083 -2.7034788 0.27511767 285
1.4455808 -2.7165716 0.20733161 302.60001
1.5319512 -2.7397883 0.16774318 286
1.1175677 -2.6023853 0.22136621 307.22223
1.2549959 -2.603369 0.22379737 308
1.3966529 -2.6275594 0.21588071 306
1.4434332 -2.7520986 0.31726348 287
1.1213571 -2.6093481 0.37515596 304.11111
1.2563931 -2.5980086 0.38192841 304.22223
1.3904855 -2.6175883 0.36754891 321.66669
1.2730267 -2.547513 0.3224504 280
1.3187242 -2.8868697 0.55061227 370
1.4391969 -2.9609132 0.5551123 267
1.1600664 -2.6223595 0.5338099 305
1.2753403 -2.6018438 0.4737646 313
1.3854017 -2.6364663 0.59300923 267
1.1398208 -2.5477858 0.5002175 328
1.2443398 -2.5364347 0.5380457 332.60001
1.3694036 -2.5312448 0.52560174 331.66669
1.3017936 -2.9267197 0.66537964 356.33334
1.4213717 -2.9219482 0.6542207 383
1.1905367 -2.6481209 0.68766904 305
1.2892822 -2.6004181 0.68302548 317
1.434381 -2.603879 0.66630858 297.39999
1.5640301 -2.6397257 0.68127632 340
1.704212 -2.647517 0.68621939 244.66667
1.3449278 -2.5472338 0.70926833 319
1.4214022 -2.5267918 0.70837086 340
1.5790104 -2.520185 0.71195459 321
1.1536714 -2.9106977 0.79177529 271
1.2638654 -2.9049881 0.77982324 328.66669
1.2970968 -2.8429 0.81954437 268
1.3590857 -2.7757535 0.88284671 368
1.1125568 -2.566052 0.81590939 326.66669
1.288126 -2.5680814 0.80997157 321.5
1.4215463 -2.5678904 0.8213405 339
1.5502094 -2.5551224 0.85245156 317
1.7553931 -2.5853996 0.7967 301
1.1549392 -2.5067358 0.82807887 305
1.4227803 -2.5262308 0.79082394 332
1.5879614 -2.5242805 0.80789483 379.39999
1.7388085 -2.5454836 0.86127639 325
1.1085075 -2.7726362 0.98426133 347
1.2792333 -2.7982605 0.99621058 286.66669
1.1774062 -2.5544379 0.90475273 327
1.2518739 -2.5524542 0.9072994 327
1.4389575 -2.5992296 0.94370234 303
1.5559819 -2.5837872 0.96587729 313
1.6937377 -2.5597644 0.95833319 345
1.155458 -2.4691868 0.9866308 329
1.293247 -2.5071464 0.98003495 328.66669
1.4322782 -2.5106013 0.97755188 344.20001
1.5736979 -2.531467 0.94427413 343
1.1251172 -2.7491913 1.1402884 270.33334
1.2522848 -2.8090189 1.1375145 310
1.3621511 -2.7936482 1.153388 299
1.4209832 -2.554312 1.0591037 383
1.1776102 -2.506932 1.1012894 333
1.3027723 -2.5119567 1.0873523 344.33334
1.4527526 -2.5236063 1.090049 394
1.5759813 -2.5269995 1.0649649 399
1.0230105 -3.0098932 1.3174801 309
1.2863185 -3.0189433 1.3341917 414
0.83954024 -2.9869015 1.3044697 302
1.2444274 -2.7144783 1.2390574 309
1.1033901 -2.6428967 1.2448223 346.25
1.2661803 -2.6251707 1.2435092 337.80002
1.385216 -2.6282609 1.2244906 312
1.0954795 -3.0089028 1.4030604 297
0.69480348 -2.9298229 1.401888 297
0.81565583 -2.9207726 1.4012153 306.33334
0.96259272 -2.9381483 1.4126952 299.5
1.1244644 -2.9352052 1.4284357 304.60001
1.2580116 -2.9059219 1.4194524 312
0.68446517 -2.797637 1.4676435 291
0.8018505 -2.817255 1.4786614 298.33334
0.91114378 -2.7795689 1.4684932 311
1.149606 -2.796519 1.4908996 309
1.2875018 -2.7672429 1.3744321 309
1.4171624 -2.7805862 1.391193 301
1.5336943 -2.7422397 1.390871 305
0.70692861 -2.6720972 1.490005 314
0.8673923 -2.5660789 1.4523146 387
1.1053286 -2.6536067 1.3589307 302
1.291328 -2.6189387 1.4245148 316
1.4240922 -2.6186495 1.4145 314.5
1.5525908 -2.5766988 1.3777177 329
0.7938807 -2.4236367 1.4533272 439
1.2801584 -2.4197485 1.4304136 291
1.4482698 -2.5374622 1.4254751 296
1.5518196 -2.4911563 1.4228836 305
0.67954671 -2.3628535 1.4418902 278.33334
0.97118831 -2.2965498 1.4717655 308
1.1444966 -2.2917509 1.4580226 285.5
1.326245 -2.3468037 1.4301857 271.66669
1.4146161 -2.3040862 1.4040244 296
0.8490721 -2.226675 1.389666 335
0.98936439 -2.226656 1.4117248 381
1.0932562 -2.2093542 1.3859304 431
0.89172089 -2.8682978 1.5022763 293
0.991198 -2.8787773 1.5115461 293
1.1030875 -2.8696322 1.5154318 291.66669
0.82628644 -2.7407522 1.5232877 312
0.9947052 -2.8 1.5573912 290.33334
1.1254069 -2.7819316 1.5599884 275.5
1.26771 -2.7826517 1.5423794 289.39999
1.3534195 -2.7830603 1.5048082 315
0.79264569 -2.6568799 1.5212495 309
1.002224 -2.6632934 1.5730616 305
1.1007408 -2.6472363 1.5746678 282
1.2511194 -2.6275277 1.509624 291
1.3871254 -2.5757327 1.5053911 301
0.78695965 -2.3951771 1.5028847 255
