# .PCD v0.7 - Point Cloud Data file format
VERSION 0.7
FIELDS x y z intensity
SIZE 4 4 4 4
TYPE F F F F
COUNT 1 1 1 1
WIDTH 1
HEIGHT 78
VIEWPOINT 0 0 0 1 0 0 0
POINTS 78
DATA ascii
0.86691421 -3.3575764 0.049399912 351
-0.20357589 1.6400791 0.26128888 356.20001
-0.12472314 1.6230304 0.26465487 467
-0.20402656 1.69082 0.2558932 319
-0.090115793 1.6810775 0.25700378 421.57144
-0.2165861 1.4927632 0.42534977 396
-0.19860302 1.6200197 0.38064739 354.5
-0.12238085 1.6265961 0.37632662 451.25
-0.20644833 1.6628879 0.3445425 374.5
-0.077172793 1.7048345 0.37435594 356.22223
-0.19684675 1.4582779 0.53078032 493.61542
-0.18336108 1.6114806 0.5126006 441
-0.12540248 1.617559 0.50873315 470.69232
-0.25683966 1.7318065 0.50740147 315
-0.080681682 1.6974709 0.52590322 390.89999
-0.076105088 1.8030396 0.54229045 265
-0.19254079 1.3435477 0.71068203 499
-0.17867211 1.4502317 0.66792786 518.14288
-0.13395554 1.4689817 0.66898954 411
-0.1505262 1.6139094 0.6038174 481
-0.11278333 1.5434822 0.69062358 437.71429
-0.089338422 1.681347 0.65535533 385.55557
-0.14460199 1.4593387 0.83232123 441.5
-0.10653088 1.5552281 0.82998657 408.5
-0.11444992 1.814782 0.76540989 273
-0.14634287 1.4942676 0.94671345 323
-0.15848434 1.5500302 1.0117615 319
-0.11711757 1.5855246 0.98098689 392.875
-0.11102891 1.6500852 0.90778565 319
-0.086101726 1.4420322 1.1719726 337.80002
0.037190557 1.4795879 1.1874219 549
-0.15170342 1.5498977 1.0959387 339
-0.12824686 1.5878695 1.1299243 354.33334
-0.12253863 1.6804199 1.1035192 325
-0.054231599 1.4629768 1.241226 331.66669
0.0053036264 1.45437 1.2563633 359
-0.066450208 1.5186967 1.2665942 313.5
0.048612144 1.5635875 1.2584155 339.5
-0.13893974 1.6997179 1.2493794 279
-0.14268823 1.6244173 1.4569725 322.33334
-0.17060636 1.7032131 1.4349877 305
-0.077544197 1.7254636 1.4362967 435.66669
0.0039665103 1.6761031 1.4063646 607
0.038667679 1.8252114 1.4173415 531
0.042816669 2.2488589 1.4999207 311
0.2067766 2.2041817 1.4646782 325.83334
-0.15204677 1.6945256 1.5678262 275
-0.11271803 1.7218635 1.5579748 295.36365
-0.11190939 1.8086048 1.5685606 307
0.55604506 1.8969475 1.5838399 291.57144
-0.19079256 1.9982623 1.6330351 373
0.41643709 2.0612645 1.6029525 304.41669
0.50498557 1.9938742 1.6107527 307.55557
-0.22609407 2.2008219 1.5908012 296
-0.071355619 2.1840637 1.5572528 314.77777
0.076632917 2.1667891 1.588398 318.84616
0.2173537 2.1933701 1.5802459 304.05884
0.34152102 2.1320319 1.5881771 276
-0.23056658 2.2620721 1.5685875 268
0.21762726 2.2508185 1.595553 297
-0.087521136 1.898298 1.6724689 423
0.51318765 1.9329877 1.6844057 302.5
-0.1665144 2.0735376 1.7120787 371
-0.094964057 2.0396354 1.7231587 396
0.088449791 2.0745399 1.7544031 311
0.24967003 2.0706427 1.7618217 290.5
0.37067354 2.0537012 1.7205095 275.25
0.46416655 2.0210531 1.6895714 263.80002
-0.17236519 2.1516244 1.7599492 279.66669
-0.044488378 2.1540318 1.7302032 306.16669
0.066183195 2.1477165 1.7251414 309.125
0.22229917 2.1590042 1.7257246 290.14288
0.3268778 2.1224792 1.6784973 285.66669
-0.05737552 2.0833273 1.8329843 334.66669
0.072798073 2.0787714 1.8121514 306.33334
0.20576794 2.0771959 1.8086474 307
-0.053657822 2.1306098 1.8205631 296.5
0.044088483 2.1374543 1.8129604 303
