# .PCD v0.7 - Point Cloud Data file format
VERSION 0.7
FIELDS x y z intensity
SIZE 4 4 4 4
TYPE F F F F
COUNT 1 1 1 1
WIDTH 1
HEIGHT 96
VIEWPOINT 0 0 0 1 0 0 0
POINTS 96
DATA ascii
1.5527147 3.365447 0.11915311 574
3.6384113 -1.0837481 0.093852505 413.66669
3.5962977 -1.0382657 0.055454522 406
3.6847541 -1.0035502 0.051070984 341.39999
3.7871418 -1.0132511 0.099641308 310.66669
3.9944758 -0.95870733 0.045326382 310.5
3.9638832 -0.88464987 0.072303928 373.66669
3.6590686 -1.0737603 0.21559389 408.5
3.8181331 -0.99453509 0.22979771 317.33334
3.9589093 -0.9665888 0.22008415 372.5
3.9262941 -0.86091495 0.23633561 390
3.7072253 -1.0906442 0.3246606 410
3.7868116 -1.1091869 0.41572317 241.66667
3.7417524 -1.010988 0.36716872 398
3.841234 -0.99390322 0.38610062 375.625
3.9059026 -0.95787507 0.36697167 396
3.9443352 -0.8526274 0.40225744 384
3.7098737 -1.0858815 0.58650613 343
3.8165507 -1.120332 0.51516688 247
3.7296624 -0.97840637 0.58465952 367
3.8509567 -0.98049438 0.54720485 280.57144
3.7099125 -0.81250006 0.57936615 392
3.7721193 -0.80056703 0.5829221 317
3.9717436 -0.85132718 0.51595271 418
4.0205288 -1.2732726 0.69768929 400
3.7081523 -1.0942175 0.69340253 721.66669
3.69819 -0.97716975 0.70766503 1115.8572
3.7343748 -0.87636888 0.7425707 2971
3.7799253 -0.82966769 0.70480299 303.5
3.9706481 -1.2745805 0.8286429 302.5
3.7323678 -1.0556351 0.83450872 335
3.7671087 -1.1363932 0.84289217 319
3.6635723 -0.96217287 0.82151139 3025
3.7648621 -0.97292507 0.83472276 333
3.7802 -0.83674431 0.83101273 317.66669
3.8703642 -1.2053179 0.95076811 327
3.9179425 -1.2883238 0.96288443 313
3.7939038 -1.1362562 0.98152989 335.5
3.7431037 -1.0137917 0.98044842 369
3.7643251 -0.97727239 0.96716785 344.5
3.7223077 -0.83078784 0.94399786 371
3.7808061 -0.77805239 1.0041422 260
3.8741 -1.2763754 1.0500702 412
3.7474763 -1.1402931 1.1112711 1989
3.7668498 -1.1596106 1.1164947 2413
3.721791 -0.98110294 1.1131686 1276.2001
3.7196155 -0.85279399 1.086571 1639
3.784457 -0.85158944 1.0994247 333
3.8236203 -1.0635512 1.2635953 438.5
3.9361153 -1.0954307 1.2425646 261
3.8573489 -0.9785955 1.3125595 313
3.929002 -0.99696422 1.2337446 301
3.8803363 -0.99501324 1.4170786 239
3.9565487 -0.99355239 1.4377093 237
3.9319639 -1.0128163 1.531806 245
6.8044853 0.56353652 0.092294008 416
7.012198 0.54358196 0.084222257 309
6.8579016 0.72552311 0.1418279 360
6.783134 0.54985082 0.25450718 398
7.0433731 0.55745775 0.25066864 390
6.8477325 0.73168039 0.25389099 410
7.0451245 0.73873925 0.25097543 360
6.8233132 0.54527837 0.37307185 404
7.0832973 0.56830972 0.37399152 406
6.8863416 0.74324584 0.37399521 412
7.0059295 0.7261461 0.37430397 384
6.8442426 0.5390318 0.49963143 426
7.1606531 0.58238471 0.50691485 394
7.0140572 0.71868938 0.50437731 398
7.0497541 0.7690174 0.50548249 249
7.1912856 0.41351935 0.64733458 273
6.8972907 0.53531039 0.6354562 261
7.2679219 0.59917206 0.65163684 293
7.1167617 0.72114962 0.64610791 263
7.102972 0.78250021 0.64603961 257
7.196969 0.4215627 0.79441631 263
6.9014015 0.52757287 0.77630627 283
7.0979962 0.71071368 0.79044855 275
7.2543974 0.60568094 0.79940593 275
7.2740903 0.39047131 0.95338905 331.5
6.9318867 0.52188933 0.92510498 285
7.1243272 0.70495588 0.94354153 279
7.3226719 0.61931562 0.95950615 253
6.9467816 0.77904743 0.92937958 235
7.1863074 0.43623966 1.1044717 291
7.3200412 0.34165746 1.118238 277
6.9138737 0.51237875 1.0756884 285
7.0873303 0.6926809 1.0967641 275
7.343092 0.62882686 1.1235589 271
6.8532262 0.77520943 1.072782 432
7.3175774 0.33315119 1.2839998 259
6.9285359 0.50540411 1.2343992 235
6.8897457 0.49440625 1.3889852 372
6.8894658 0.43935776 1.5517492 338
7.001976 0.49459219 1.5728965 350
6.8935943 0.61038488 1.5554185 257
