# .PCD v0.7 - Point Cloud Data file format
VERSION 0.7
FIELDS x y z intensity
SIZE 4 4 4 4
TYPE F F F F
COUNT 1 1 1 1
WIDTH 1
HEIGHT 129
VIEWPOINT 0 0 0 1 0 0 0
POINTS 129
DATA ascii
-1.2204783 4.4728851 0.072314277 345.33334
2.4191558 -3.4599082 0.112167 184
2.515039 -3.4305029 0.084181279 304
2.5802627 -3.4249096 0.058865845 310.33334
2.7605436 -3.3902211 0.073495999 289.89999
2.9266052 -3.347388 0.088680282 276.55557
3.0505216 -3.319066 0.082113266 275
3.1226289 -3.2614925 0.079654224 281.66669
3.3399816 -3.1515529 0.042123511 283
3.124702 -3.1077075 0.10036077 264
3.2072129 -3.095952 0.044526003 296.66669
3.3133435 -3.132261 0.1261037 281
2.4667225 -3.505867 0.25278282 265
2.5801115 -3.4594951 0.25982469 293.66669
2.4946704 -3.4385791 0.18129802 326
2.630856 -3.3827844 0.21758233 275.60001
2.7696044 -3.4117076 0.22118549 272.66669
2.9104512 -3.3686123 0.23714411 274.5
3.0255876 -3.3257446 0.23299125 277.5
3.130754 -3.2649429 0.22936597 282
3.1913896 -3.1758137 0.22732727 286
3.141273 -3.1118097 0.26249573 256
3.1546137 -3.1214249 0.19599184 254
3.3066311 -3.1328695 0.22323516 307
2.4581447 -3.4731865 0.35472238 285
2.585464 -3.4634328 0.38940114 301
2.482039 -3.4120634 0.3901487 342
2.6408293 -3.3978195 0.40579203 329.5
2.7832706 -3.4052868 0.37686524 280.60001
2.9079547 -3.3592196 0.38139009 273
3.0275216 -3.3221476 0.37855935 278.5
3.1229768 -3.2552009 0.36253771 278.33334
3.1536841 -3.2708495 0.41503692 283
3.1438539 -3.123662 0.41103238 198
3.2218158 -3.1366117 0.36397833 305.20001
2.7325382 -3.4517438 0.50626338 267
2.4826198 -3.4193504 0.53276467 315.33334
2.622983 -3.4339507 0.54785585 302.5
2.7851112 -3.3926513 0.55490607 295
2.9108448 -3.3557851 0.54514259 279
3.0365527 -3.3262432 0.54467601 288.5
3.1115632 -3.2552652 0.54182357 283
3.1777225 -3.2254541 0.55548155 293.66669
3.2525172 -3.1310401 0.52264977 307
2.3692291 -3.4703593 0.67650175 344
2.4497979 -3.4075973 0.67268562 321
2.6098452 -3.4211731 0.67702085 307
2.7755008 -3.3911674 0.67836207 303
2.9108403 -3.3500655 0.67856658 286
3.0341804 -3.3178501 0.67950535 285
3.1036718 -3.2523651 0.67665279 285
3.2058578 -3.2144566 0.67708874 286
3.2792809 -3.1286261 0.67332006 305
2.4475441 -3.5089757 0.83521342 285.66669
2.4741454 -3.432117 0.76510847 311
2.6102171 -3.4275351 0.81663913 308.5
2.7836931 -3.3916163 0.82010198 297.66669
2.9169111 -3.351409 0.82190919 288
3.0289369 -3.3142276 0.84000385 291
3.0830867 -3.2706182 0.80551994 294.33334
3.1784697 -3.2487404 0.8247658 302
3.1205919 -3.1180038 0.85715163 230
3.2537503 -3.1299334 0.80083311 322.66669
2.4033513 -3.4835885 0.9585427 305
2.5064795 -3.4123554 0.95412797 340.5
2.6639671 -3.419276 0.96435595 299
2.7908416 -3.39025 0.96845126 285.66669
2.9207561 -3.3498912 0.97178352 297
3.0410452 -3.3139665 0.97560811 291
3.1043589 -3.2644327 0.97394931 287
3.1841171 -3.2378998 0.97667873 287
3.2523398 -3.1117134 0.96660721 317
2.4056609 -3.4655399 1.1051551 311
2.6688938 -3.4877815 1.1814346 273
2.544301 -3.4337893 1.1100345 316
2.6484127 -3.4250121 1.0996628 321.33334
2.7751918 -3.4127319 1.1253099 291
2.9285469 -3.3444819 1.1279163 297.5
3.0900135 -3.3047748 1.1906034 297
3.0799434 -3.2626095 1.1115283 293.66669
3.2037754 -3.2423208 1.1387763 295
3.2712317 -3.1366482 1.1298501 302
2.661582 -3.4633086 1.2830325 283
2.4733005 -3.4386687 1.2596712 314
2.6663418 -3.4328282 1.2774587 303
2.7770057 -3.4077578 1.2841656 288
2.9324152 -3.3423553 1.2889974 292
3.0908217 -3.2763019 1.2953746 289
3.2248001 -3.2479944 1.3069357 287
3.2724295 -3.1429377 1.2944918 305
2.4896369 -3.4530582 1.4765447 307
2.6148624 -3.4632142 1.3858906 295
2.4143617 -3.4431677 1.3593107 313
2.6481638 -3.4115033 1.432472 296
2.7758443 -3.4041126 1.4284639 294.33334
2.9388418 -3.3458192 1.4003091 293
3.1128836 -3.3066187 1.4155554 289
3.0815754 -3.2516248 1.4000499 291
3.222569 -3.2338824 1.416485 291
3.2620668 -3.1353445 1.4029727 307
2.4692252 -3.5013449 1.5946351 275
2.6777654 -3.4589376 1.5017713 305
2.5402808 -3.4314659 1.5854959 300.5
2.6666341 -3.4358287 1.6047269 292
2.7806869 -3.3938282 1.5737647 290.33334
2.9293771 -3.3419662 1.557265 291.85715
3.0732327 -3.3158298 1.6387184 281
3.0912752 -3.2682073 1.5545306 281
3.2413316 -3.2426374 1.535123 287
3.2581203 -3.1359949 1.5717562 313
2.6453784 -3.4729257 1.7223231 284
2.4712908 -3.4336581 1.7198284 272
2.6533611 -3.4265811 1.7102323 297
2.7816319 -3.3932009 1.721957 289
2.9273868 -3.3542287 1.7365887 292.33334
3.0157554 -3.3163464 1.7422286 283
3.0912139 -3.2722285 1.7445866 277
3.2586699 -3.2095103 1.7223339 293
2.471751 -3.4610686 1.9081529 297
2.52561 -3.4271626 1.8522437 312
2.6271734 -3.3937757 1.8868043 305
2.7636523 -3.3182282 1.9163364 317
2.4266794 -3.2811666 1.9421206 312
2.7877524 -3.1763539 1.8761916 384
2.9457912 -3.2445731 1.8483882 328.75
3.0650597 -3.2255101 1.895236 312
3.2490039 -3.1747365 1.8643639 300
3.0774665 -3.2308707 1.9562142 289
3.2054701 -3.1572411 1.9632114 434
