# .PCD v0.7 - Point Cloud Data file format
VERSION 0.7
FIELDS x y z intensity
SIZE 4 4 4 4
TYPE F F F F
COUNT 1 1 1 1
WIDTH 1
HEIGHT 126
VIEWPOINT 0 0 0 1 0 0 0
POINTS 126
DATA ascii
1.0793293 7.1910453 0.12316485 284
1.4307022 -6.2476025 0.93456084 247
1.297403 -6.1137691 0.92388856 264
1.3082844 -6.1944113 1.0703616 264
1.099997 -5.6293001 1.1373521 373
0.96510768 -5.4799347 1.1181591 106
1.3133643 -6.2396669 1.2211727 76
0.89811575 -5.5783968 1.2666801 274
1.1539624 -5.6558828 1.2762837 430
1.0458595 -5.5307221 1.2567074 390
0.96506178 -5.3948503 1.2352129 402
1.3048823 -6.202826 1.3653177 466
1.4041884 -6.1518946 1.3563328 94
1.2209727 -6.0068226 1.4815167 494
1.4230376 -6.0186348 1.4832984 478
1.0303578 -5.8108864 1.4458556 580
1.0369751 -5.4809866 1.3831667 388
1.2935156 -6.1477437 1.5078353 362
1.2172554 -5.9069152 1.6117669 356
0.9155575 -5.7672935 1.5837213 478
1.2276487 -5.7636814 1.5811485 552
0.87687457 -5.6080499 1.5499041 528
1.0594289 -5.654707 1.5582983 622
1.0067401 -5.5441232 1.5349048 482
0.99604833 -5.3804827 1.638278 508
0.99800348 -5.2262096 1.6012694 298
0.8865394 -5.5570636 1.6814156 382
1.1884007 -5.6541076 1.7037374 402
1.2122824 -5.6819005 1.7104546 404
1.3532124 -5.6845927 1.7120142 410
1.0459956 -5.623559 1.8434124 420
1.3451955 -5.6407433 1.850065 420
0.729132 -5.4538031 1.8003365 354
0.88255215 -5.5013299 1.8114295 418
1.1776747 -5.5002813 1.8112302 390
1.1610711 -5.3703537 1.9194491 265
0.82692331 -5.5952272 1.9846056 302.5
1.0453392 -5.5891371 1.9822593 414
1.0563111 -5.6535821 2.0010872 253
0.72705954 -5.455349 2.0167837 386
0.76465189 -5.4809284 2.0975182 404
0.90312159 -5.5351367 1.9664836 404
1.1469189 -5.3154917 2.0460148 247
0.88858533 -5.5827317 2.12936 239
0.92390835 -5.6145582 2.1394644 454
1.0570176 -5.6844616 2.1621323 508
1.2236788 -5.6529737 2.1540191 474
0.62109303 -5.4041772 2.2189684 250
0.76952672 -5.4103565 2.2195008 386
0.71778834 -5.3697281 2.2058299 384
1.0778528 -5.7407413 2.3342657 419
0.88964701 -5.6056004 2.2866592 247
1.2559013 -5.6333323 2.3003576 431.33334
0.71575391 -5.3620596 2.3464317 210
1.1142745 -5.8077922 2.5137415 432
1.2125183 -5.7322206 2.4876165 476
1.4196036 -5.7131858 2.4865317 482
1.285182 -5.6025486 2.4416814 522
1.4857466 -5.5911016 2.4443233 486
0.96775472 -5.685246 2.6191492 364
1.0534911 -5.6920962 2.6229322 370
1.4875909 -5.6069803 2.6025846 188
1.044383 -5.6371078 2.751317 274
1.1562599 -5.6546659 2.7612693 357
1.4826958 -6.1478887 0.13614786 288
1.5793526 -6.0331879 0.095648199 304
1.7638124 -6.0872097 0.086239524 340
1.941021 -6.0668702 0.11981554 156
1.6208248 -5.9829974 0.095505744 363
1.9589162 -5.9871387 0.12118892 248
1.3295988 -6.3308096 0.22958729 326
1.5134798 -6.3267069 0.22295178 306
1.5981333 -6.0486093 0.22342372 184
1.786721 -6.1163139 0.21557677 316
1.9652572 -6.1158237 0.20891279 214
1.6119101 -5.9728136 0.2238882 358
2.0791891 -5.9263473 0.20700894 184
1.3476431 -6.3425651 0.32877526 328
1.5135702 -6.3477798 0.32321548 275
1.6794132 -6.3100572 0.42673165 368
1.5000169 -6.2995162 0.43192726 326
1.6744066 -6.293757 0.42657417 414
1.8234327 -6.1664591 0.41977966 354
2.0151649 -6.2329645 0.41544664 312
1.3204511 -6.1473227 0.43452573 274
1.4773812 -6.106277 0.42895669 260
1.6102663 -6.0553732 0.31928742 298
1.8057578 -6.1490097 0.31296432 346
1.9902081 -6.1273766 0.36066875 225
1.6131269 -5.9963388 0.31905341 316
1.5303253 -6.3154235 0.54812807 300
1.3397326 -6.1941628 0.54885042 164
1.8319048 -6.1624603 0.53476584 390
1.6366919 -6.0743566 0.5365057 298
1.8160768 -6.1437659 0.53448129 394
1.9843975 -6.1364713 0.53010273 192
1.6987042 -6.429183 0.67442095 332
1.4799925 -6.2326522 0.6684531 288
1.5298703 -6.2544241 0.66851032 338
1.6907678 -6.2621093 0.66535699 376
1.8590932 -6.2228432 0.65968823 408
2.0254858 -6.2311416 0.65691376 286
1.3368319 -6.1115885 0.66511995 152
1.8102363 -6.1341972 0.6558063 370
1.713231 -6.3074441 0.79880893 344
1.8506427 -6.2238083 0.7903353 386
2.0080423 -6.2457886 0.78970265 316
1.6297191 -6.132885 0.78714085 312
1.6870148 -6.4051147 0.94593847 324
1.8577747 -6.3490629 0.93856573 378
1.554934 -6.0309982 0.98018372 329
1.6708086 -6.0699782 0.91402376 312
1.8627239 -6.1424174 0.91883957 410
1.812072 -6.1775999 1.0633864 398
1.9947264 -6.219521 1.067573 322
1.6933799 -6.0885534 1.125253 242
1.8646131 -6.0784478 1.1237963 369
2.047498 -6.1149483 1.0553789 288
1.7496933 -5.9378648 1.1763747 406
2.0159845 -6.3061209 1.2279412 148
1.5480978 -6.1069827 1.2005527 488
1.575371 -5.9341278 1.3203306 460
1.732653 -5.8788986 1.3118477 396
1.8382075 -5.8616719 1.4571359 420
1.7154268 -5.8185129 1.4475776 290
1.8776679 -5.8310919 1.6026379 420
