# .PCD v0.7 - Point Cloud Data file format
VERSION 0.7
FIELDS x y z intensity
SIZE 4 4 4 4
TYPE F F F F
COUNT 1 1 1 1
WIDTH 1
HEIGHT 207
VIEWPOINT 0 0 0 1 0 0 0
POINTS 207
DATA ascii
-0.042076439 4.6437902 0.11887604 231
0.58685267 1.590251 0.2610577 394.33334
0.65458041 1.559666 0.25203663 471.41379
0.51067716 1.7480109 0.25274426 425.46155
0.60792196 1.7527148 0.23881352 414
0.78500414 1.7852665 0.18931639 395
0.52148074 1.8194556 0.26835984 386.5
0.60712391 1.8467224 0.23152027 348
0.95589113 1.8566612 0.15382753 313
1.0077089 1.9669015 0.16301085 289
0.57279801 1.5745018 0.37229285 412.20001
0.65428311 1.5528191 0.36961219 439.80002
0.42496836 1.7810323 0.37920326 319
0.51203567 1.7435161 0.37909609 401.36365
0.4296633 1.8345172 0.38122749 307
0.5343343 1.8567553 0.3836253 310.14288
0.59657419 1.4955068 0.57636762 572
0.57434297 1.5315353 0.52129275 517.40002
0.65864897 1.5358686 0.51842225 492.12
0.5180701 1.725776 0.53008169 448.61905
0.77697134 1.6899503 0.58547413 405
0.43168721 1.8909149 0.49122307 281
0.51721144 1.8221471 0.54250407 325
0.59038997 1.4876564 0.69447172 615
0.6530084 1.4864691 0.69999993 597.79999
0.53985119 1.5608628 0.68154043 488.64706
0.68544048 1.5257179 0.65928966 542.17645
0.7855491 1.5807644 0.68341696 469.80002
0.49981725 1.6936351 0.64842135 428.5
0.86411583 1.6769875 0.71413618 279
0.52537334 1.8905455 0.61476028 287
0.63684738 1.4928247 0.80928028 632
0.54763579 1.5632309 0.81914634 543.57141
0.68140602 1.5241622 0.82890636 609.52173
0.79083157 1.5553566 0.82915276 560.81818
0.45852804 1.7066152 0.80391073 414.33334
0.57971376 1.4424243 1.0250573 489
0.68699443 1.4426051 1.0137055 520.42859
0.76855767 1.4412656 1.0007932 588.33337
0.56442297 1.5724071 0.96250057 582.8667
0.67319542 1.5396447 0.96996778 609.3158
0.79252672 1.5455425 0.94724387 665.33337
0.50779271 1.7073436 0.97433406 351.25
0.53609812 1.3450232 1.1398816 748
0.54002863 1.4318101 1.1308012 446.57144
0.688501 1.4446025 1.124534 529.54169
0.76933366 1.4317949 1.1190599 627.57147
1.2075763 1.465529 1.1878166 130
0.567397 1.5424325 1.1078905 511.75
0.64291286 1.5417711 1.1334701 473.28574
0.88129354 1.6097265 1.192609 563
1.1866715 1.5967898 1.17084 311
1.2325633 1.6049213 1.1827813 320
0.51723909 1.6745468 1.0636768 350
0.89875972 1.653954 1.1718869 541
1.1678168 1.754809 1.1267277 308.42859
1.2476988 1.7204971 1.1563387 295.39999
1.0128301 1.9168756 1.1448777 331.33334
1.1125463 1.8701507 1.1392494 314
1.0244906 2.0037231 1.159986 315
1.1659956 1.2930039 1.3499146 311
1.2484443 1.3056002 1.3079764 477
0.54653502 1.4566935 1.2188747 407
0.70032948 1.4509364 1.2415621 487.42859
0.77972436 1.4547184 1.2284875 482.5
1.1928829 1.4217795 1.308401 331.20001
1.249398 1.4061418 1.3255763 301
0.5125457 1.5473523 1.2041243 649
0.64612025 1.5756015 1.2754475 403.90909
1.1834306 1.5949912 1.2818682 314.33334
1.2341859 1.5718402 1.2813312 315.22223
0.90922177 1.685202 1.2752923 547
1.1690351 1.749171 1.2786455 320.33334
1.2309027 1.7501745 1.2666085 311
1.0025654 1.8687952 1.2305923 377
1.1304489 1.8861743 1.2699873 313.57144
1.0183368 2.0032196 1.2754837 316
1.1025414 1.9629178 1.3193009 309.66669
1.1629829 1.3053446 1.3781729 326.33334
1.2167168 1.3138566 1.3769778 343.66669
1.1824278 1.4180561 1.4383401 383.85715
1.2355552 1.4032011 1.3920851 311
0.56847107 1.5867662 1.4066162 379
0.66111267 1.5952184 1.4058884 370.72
1.1622701 1.5984539 1.446962 313.20001
1.2319148 1.5650574 1.4275392 313
0.53724921 1.7173395 1.4958348 381
0.7246201 1.6502825 1.4393711 424
0.80199993 1.6768479 1.4450583 314
1.1678257 1.7434486 1.428111 328.57144
1.2294948 1.7012055 1.411458 310
1.0182986 1.8819188 1.46437 405
1.1106399 1.8634411 1.4247268 339.42105
1.0074508 1.9578118 1.3990825 365
1.1093401 1.9652088 1.4094419 303.66669
0.68690467 1.625765 1.5043169 275
1.1411421 1.5718448 1.539796 382.63638
1.2242835 1.6225163 1.5111347 335
0.44744843 1.716081 1.5065064 415
0.52394235 1.6837385 1.5083442 404
0.84311134 1.7373748 1.5074788 275
1.0110539 1.7612845 1.5814744 351.28574
1.1108936 1.7319175 1.5607108 317.63159
0.86822921 1.8985605 1.6226581 326.20001
0.98399174 1.8710098 1.585766 348.41177
1.1118016 1.8303119 1.5734354 328.63638
0.97288918 1.9947288 1.6363858 291
1.0797656 1.7591025 1.6653401 313
0.86962146 1.8721673 1.6771519 317
0.95368522 1.8484629 1.6700385 313.66669
1.0169526 1.9838604 1.6563154 271
2.9258349 -2.5850604 0.029993504 376
3.0237854 -2.6196456 0.092867225 304.5
3.5013838 -2.4618673 0.10184713 308
3.0967774 -2.6469877 0.23327595 303
3.0606766 -2.493845 0.23471269 309
3.227515 -2.497509 0.22845259 288
3.3752944 -2.4790859 0.23307352 331.33334
3.4726114 -2.4252195 0.21964382 307
3.1387706 -2.6696947 0.36344433 334.5
3.307307 -2.5576477 0.39522406 249
3.0502133 -2.469089 0.36075112 305
3.194057 -2.4539602 0.35870978 307
3.3755407 -2.4720833 0.35679972 296.5
3.1943555 -2.7524772 0.47782758 822
3.0770674 -2.6223736 0.51040292 194.5
3.0676494 -2.4800158 0.50406867 308.5
3.2077081 -2.4411075 0.51268274 314.20001
3.3687177 -2.4593711 0.50919187 368.5
3.3028517 -2.3994966 0.46570849 384
2.9576054 -2.5381274 0.6616717 329
3.0572135 -2.4443805 0.66771066 341.39999
3.1859386 -2.4322481 0.65104473 317
3.370024 -2.4366026 0.63111806 291
3.5240347 -2.4210091 0.63692987 301
3.2562799 -2.3945651 0.66575819 334
3.3205833 -2.3897603 0.71145606 311
3.4837136 -2.3830132 0.72096837 299
2.9023242 -2.4772778 0.84100622 324
3.0963483 -2.4599857 0.81913698 315
3.2255597 -2.4793851 0.83162081 295
3.3846104 -2.4316964 0.80884421 285
2.9488623 -2.3994162 0.85785985 317
3.081049 -2.3869019 0.86853611 299
3.2176757 -2.3700819 0.83450079 316
3.4664288 -2.3621736 0.80932665 386
3.1686897 -2.6311147 0.99796414 323
2.7729971 -2.5257142 0.94312632 378
2.9197586 -2.4853377 0.99767572 377.5
3.0549502 -2.4316449 0.96034688 319
3.1954989 -2.4635692 0.979837 317
3.378608 -2.4187665 0.90013897 406
3.550173 -2.4157913 0.91673207 315
3.0800898 -2.3920367 1.0493517 365
3.2023406 -2.3624218 0.96822155 311
3.0832729 -2.6299891 1.1487157 318.66669
3.18857 -2.6400049 1.0985727 317
2.9060919 -2.505841 1.1358891 362
3.0283592 -2.4794431 1.1489073 259
3.157938 -2.4612596 1.164971 247
3.1762416 -2.344393 1.0553936 311
2.9615736 -2.9088194 1.3145485 326.5
3.1337578 -2.8593736 1.3306992 267
3.1072342 -2.6169469 1.2816317 292
2.8991427 -2.5033467 1.274684 366
3.0181677 -2.4730971 1.241164 364
2.5296726 -2.9343374 1.3568708 285
2.6266904 -2.8891878 1.36063 283
2.7650347 -2.9190269 1.4214909 295
2.9077456 -2.8821635 1.4282169 300
2.387687 -2.7393758 1.381984 233
2.538101 -2.7701144 1.414147 430
2.7651734 -2.8124919 1.4634118 283
2.9283741 -2.7941656 1.4544053 311.66669
3.105063 -2.8246174 1.4235635 307
3.207319 -2.7721946 1.4306742 289
3.3050647 -2.7167931 1.4372325 287
3.1053197 -2.6295309 1.4851493 293
3.220201 -2.657897 1.410188 257
3.3066108 -2.5940571 1.4137434 303
2.5931537 -2.5410407 1.4584936 330
3.2151525 -2.4704061 1.4070096 302.33334
3.3698912 -2.5098653 1.4098967 315
2.5076377 -2.3287323 1.4722944 271
2.9285173 -2.2553318 1.460876 156
3.1039541 -2.3457811 1.4248462 296
3.2731955 -2.2961588 1.3521941 237
2.5946512 -2.2217155 1.4637268 301
2.7247345 -2.2188597 1.4936523 285
2.9976456 -2.1085968 1.3545148 362
3.1957922 -2.22913 1.4211113 271
2.6451488 -2.7919536 1.5338787 289
2.7692232 -2.7768319 1.5536255 299
2.9042387 -2.7192097 1.5659962 279
3.0593426 -2.7755461 1.508561 289
2.9670656 -2.6193166 1.5544474 276
3.0802515 -2.6383026 1.5317495 279
3.226964 -2.6375802 1.5111099 301
2.4914601 -2.540432 1.5273495 331.5
2.6565123 -2.4520102 1.5385602 406
2.9764056 -2.4056058 1.5058677 405
3.1003795 -2.4887519 1.5527039 299
3.3311148 -2.4814439 1.5002339 297
2.6771727 -2.3694761 1.5212082 269
2.753727 -2.3193586 1.5259651 346
3.195636 -2.3744524 1.548643 297
2.8588493 -2.2191792 1.5262451 297
