# .PCD v0.7 - Point Cloud Data file format
VERSION 0.7
FIELDS x y z intensity
SIZE 4 4 4 4
TYPE F F F F
COUNT 1 1 1 1
WIDTH 1
HEIGHT 52
VIEWPOINT 0 0 0 1 0 0 0
POINTS 52
DATA ascii
-0.38987228 -5.705142 0.14040422 88
-0.63043475 -3.3363483 0.1264523 177
-0.64445651 -3.3806603 0.23043849 227.71429
-0.37622735 -3.3367939 0.16181678 308
-0.28795812 -3.3052139 0.23355724 304
-0.53013271 -3.2010694 0.18942502 297
-0.38568678 -3.2114723 0.26103675 247
-0.24047121 -3.2391939 0.18075016 262.5
-0.13693245 -3.1917953 0.21538281 318
-0.37082425 -3.0563049 0.1525538 50
-0.18094157 -3.1299324 0.21936777 285
-0.60532105 -3.4350216 0.38827422 324
-0.52829134 -3.3113816 0.33238369 261.5
-0.39371708 -3.3609533 0.38079154 224
-0.20802596 -3.3167531 0.43088865 270
-0.56450808 -3.2926996 0.38653111 276
-0.375586 -3.2157342 0.35439283 655.5
-0.232976 -3.2585111 0.39470658 243.33334
-0.10705495 -3.1436062 0.42388734 80
-0.62295407 -3.5425947 0.48375696 424
-0.68568802 -3.3788157 0.581572 237
-0.56057608 -3.3328359 0.57296073 328
-0.55816221 -3.251672 0.50380927 2997
-0.37615934 -3.2522128 0.4961226 198
-0.21862906 -3.2006507 0.51883006 249.75
-0.26188701 -3.1220651 0.48666263 1340.5
-0.090888821 -3.1025929 0.53963321 247
-0.67693627 -3.3414998 0.64981103 259
-0.56563133 -3.3225484 0.64237881 209.5
-0.37358221 -3.3437889 0.63419616 308
-0.66651118 -3.2988319 0.71912754 263
-0.49972546 -3.254148 0.66966623 231.5
-0.26152435 -3.2428212 0.65606797 249
-0.35808009 -3.1409168 0.65217125 213
-0.21613267 -3.1107011 0.657269 192.28572
-0.10808487 -3.0786643 0.73651469 321
-0.065731913 -2.9835613 0.65654624 238
-0.5319342 -3.3102798 0.82706571 284
-0.36657444 -3.3760042 0.78558874 320
-0.66281056 -3.2777553 0.83169258 288
-0.46391779 -3.2070303 0.80890048 158
-0.22992224 -3.2554393 0.78930748 330
-0.34973931 -3.0855761 0.78629696 195
-0.25723407 -3.0223086 0.80834335 202
-0.13694155 -3.0654237 0.80765927 192
-0.053834617 -2.9811587 0.79134476 198
-0.67262292 -3.3002 1.0407555 281
-0.53352869 -3.3743892 1.000749 281
-0.66670859 -3.2840581 0.95379031 283
-0.54063118 -3.449677 1.1462599 253
-0.67323542 -3.297992 1.1264312 287
-0.68786889 -3.3429849 1.2722908 331.5
