# .PCD v0.7 - Point Cloud Data file format
VERSION 0.7
FIELDS x y z intensity
SIZE 4 4 4 4
TYPE F F F F
COUNT 1 1 1 1
WIDTH 1
HEIGHT 85
VIEWPOINT 0 0 0 1 0 0 0
POINTS 85
DATA ascii
-0.7958163 3.2255514 0.090184987 304
4.9432678 -1.9220495 0.088150591 263
5.025105 -1.8606383 0.084131651 372
5.1484752 -1.8139746 0.040533572 285
5.0294781 -1.7868502 0.12123507 320
5.1777277 -1.7118061 0.076975495 395
4.9222474 -1.8986135 0.24641111 341
5.0111609 -1.920126 0.24411887 306
5.0194149 -1.7317305 0.25753558 340.66669
5.1216416 -1.6813769 0.19730048 332
4.9050112 -1.8803741 0.37944496 348
4.9979906 -1.9225024 0.38009769 278
5.0067534 -1.7750373 0.37809774 317
5.0724559 -1.6497862 0.3765924 350
4.9064054 -1.8695598 0.52586854 361
4.9774828 -1.9216249 0.52903491 329
5.0249176 -1.7562939 0.53662539 323.20001
5.1071615 -1.6703777 0.4750495 357
5.1044106 -1.6459149 0.57798928 372
4.8901834 -1.983126 0.68561149 372
4.9600434 -2.0773976 0.69320977 249
5.0112877 -1.8801291 0.68863094 340
5.074101 -1.7274396 0.68693453 346.5
5.2021847 -1.6715685 0.69260132 293
4.8954039 -2.0156565 0.79816151 816.5
4.9116735 -1.8798099 0.79306585 2530
4.9444442 -1.7465296 0.78979969 2974
5.1744127 -1.7250592 0.80701953 289
5.115068 -1.634511 0.79875827 1837
4.9960442 -2.1028948 0.92823923 273
4.9318624 -1.9809337 0.97469449 311
5.0253162 -2.0132394 1.0070044 298.33334
5.0039015 -1.8424078 0.97463554 314
5.0872445 -1.7596251 0.91874826 303
5.1742411 -1.7491953 1.0083317 307
5.3015428 -1.6895524 0.93701506 311
4.8700137 -1.9228716 1.1433871 2231
4.985323 -1.8329624 1.1533875 1369
5.0666385 -1.7365545 1.158618 1063
5.22399 -1.7573003 1.1828047 311
5.3037567 -1.6824085 1.0619134 297
5.0450578 -2.0082874 1.3023098 283
5.0961885 -1.8937122 1.3014172 287
5.1460943 -1.8741146 1.3081856 283
5.0533276 -2.0034204 1.4339229 233
5.042119 -1.8515975 1.4180684 336.5
4.9523525 -1.952992 1.5399228 218
5.0528936 -1.8540888 1.5513904 313.5
5.1771092 4.9332409 0.091585308 540
5.359766 4.8622656 0.084308088 490
5.0221748 4.9921737 0.097722501 100
5.2928405 5.0139489 0.085822195 259
4.8971553 4.8683672 0.20872761 614
5.1671166 4.9081559 0.20006582 552
5.4267135 4.9112496 0.19168699 456
5.0107698 5.0072722 0.20529254 228
5.2692986 4.9982615 0.19691645 243
5.1843863 4.6512051 0.43596107 410
5.3024702 4.7653341 0.375218 449
4.8954592 4.8661537 0.3627159 601.33337
5.1544495 4.8833785 0.37971318 559.5
5.4028893 4.8734055 0.31188452 476
4.9275112 4.8723054 0.57308447 642
5.1812129 4.8755822 0.57463771 538
5.36131 4.8032122 0.572981 458
5.400897 4.8689656 0.57582062 476
5.2689967 5.0196066 0.58092922 235
5.2374873 4.6711345 0.70519173 420
4.9349413 4.8639636 0.70941782 648
5.1785889 4.8570132 0.71387357 550
5.4033532 4.8779354 0.7197392 458
5.2747097 5.032042 0.72534299 243
5.2269678 4.6458879 0.84753609 426
4.9291778 4.841723 0.85042858 656
5.0757294 4.8381777 0.8552227 600
5.3463907 4.8301473 0.86440098 444
5.3086195 4.9691539 0.87253106 237
5.2350349 4.6379461 0.99692488 424
4.9148345 4.8105068 0.99502599 654
5.3469334 4.8368096 1.0192963 460
5.2878075 4.9945531 1.0294952 280.5
5.210525 4.5994844 1.1469704 410
4.9628725 4.8436246 1.1546839 616
5.205647 4.5793147 1.3035545 412
5.2100997 4.567749 1.4651177 412
