# .PCD v0.7 - Point Cloud Data file format
VERSION 0.7
FIELDS x y z intensity
SIZE 4 4 4 4
TYPE F F F F
COUNT 1 1 1 1
WIDTH 1
HEIGHT 67
VIEWPOINT 0 0 0 1 0 0 0
POINTS 67
DATA ascii
0.81594515 2.097168 0.14225043 441
2.0166664 1.1580069 0.11802939 517
1.9417548 1.3036449 0.13186106 273
1.9786189 1.277155 0.12526011 279.5
2.3401082 1.1246529 0.26464459 303.28574
1.9385874 1.2866945 0.20862062 281
2.0034077 1.283239 0.23329003 285.04349
2.0111923 1.4073083 0.2251205 290.875
2.2061772 1.1247731 0.41085902 281
2.2921338 1.1115763 0.36825863 274.38461
2.4235737 1.0925354 0.32331359 261
2.0284219 1.2964607 0.37274489 269.5
2.1214957 1.2689958 0.37181586 278.33334
2.2851529 1.2188945 0.41473478 261
2.0372858 1.3600345 0.41609442 259
2.1786947 0.86589378 0.58450741 146
2.1916256 0.97758961 0.59272814 306
2.0858948 1.1522055 0.59556723 298.33334
2.1798196 1.1185392 0.52790624 288.29413
2.263706 1.1048877 0.48656222 276.20001
2.0528772 1.2824802 0.50551444 281.5
2.1208947 1.2543595 0.51902431 289
2.0585966 1.3785263 0.4627299 263
2.1842453 0.87029499 0.63484311 471
2.0363595 1.0282151 0.69980019 542.60004
2.1498253 0.95546055 0.69957411 419.77777
1.9881506 1.1223959 0.68957293 505.26669
2.1746755 1.0742389 0.66416192 290.14288
2.021368 1.2627459 0.64939505 367.80002
2.1002192 1.2325139 0.60307795 287
2.0713356 1.4141827 0.64332533 331.5
2.0863259 0.89093649 0.87865305 595
2.1064034 0.89819729 0.80512983 437
1.9322877 1.0283134 0.83886945 2401
2.0268519 0.98798549 0.83159065 1459.5455
2.10361 0.95615143 0.80246389 951.66669
1.9231364 1.1208662 0.82538033 3319.5
1.9797478 1.1051421 0.83418834 1063.7273
1.9454634 1.2301515 0.84630466 1577
1.9841568 1.2910787 0.80822527 409
2.0822306 0.89062214 0.93035638 569
2.1419749 0.86175191 0.94146359 311
2.0608397 0.97379154 0.99059093 573.40002
2.1230602 0.93863022 0.94679737 469
2.0026486 1.1238345 0.97520196 448.5
1.9802147 1.2644643 0.95464617 440.5
2.0581982 1.3726848 1.0066488 539
2.1499729 1.3912568 0.99961025 328.5
2.0427625 0.96823049 1.142145 1449.0001
2.1619639 0.93509859 1.1222076 371.33334
2.0146537 1.1271909 1.1170917 823.63159
1.9285501 1.255471 1.1729053 1821
1.9785331 1.2485826 1.1218328 667.66669
2.0414622 1.3550851 1.0580015 497
2.1850288 1.4199172 1.1059768 265
2.0928781 1.03708 1.2795248 321
2.1230567 0.97280318 1.2238764 373
2.0470276 1.1087813 1.2535493 386
2.1261642 1.1292332 1.2784647 347
2.0309455 1.2376051 1.2547696 408.60001
2.1496649 1.1412058 1.4057246 335.75
2.2862482 1.1634506 1.4572042 263
2.179848 1.2671268 1.4382252 297.5
2.2695327 1.3546089 1.4836348 253
2.2065535 1.1581571 1.5107429 269
2.209924 1.2641823 1.5432574 264
2.3518691 1.3343222 1.509209 253
