# .PCD v0.7 - Point Cloud Data file format
VERSION 0.7
FIELDS x y z intensity
SIZE 4 4 4 4
TYPE F F F F
COUNT 1 1 1 1
WIDTH 1
HEIGHT 160
VIEWPOINT 0 0 0 1 0 0 0
POINTS 160
DATA ascii
2.0216496 5.3946376 0.1341684 286
1.7184246 -2.2818613 0.092317641 507
1.6292127 -2.1502821 0.14620812 373
1.5143716 -2.0563776 0.11956073 391.66669
1.6766307 -2.0600133 0.10546607 338
1.9160929 -2.0641227 0.098075546 368
1.5945169 -2.4163539 0.19351168 503
1.5217873 -2.2710376 0.2546525 286
1.5768199 -2.1334505 0.22790261 324.77777
1.7431207 -2.1257796 0.19640875 243.33334
1.5431073 -2.0787652 0.19597717 360
1.9234812 -2.0578816 0.21633345 356.77777
1.9370219 -1.821911 0.29922312 330
1.5567639 -2.2782302 0.36960381 306.5
1.601675 -2.150933 0.368561 329.80002
1.783603 -2.1634731 0.42258966 338
1.9037031 -2.1572547 0.3963086 315
2.0301676 -2.2478461 0.34517813 301
1.878973 -2.0566816 0.32332391 361
2.1756744 -1.9605792 0.41378623 333.5
1.7365377 -1.826805 0.41033196 335.25
1.9175205 -1.8773044 0.38249972 323
2.0033612 -1.8709395 0.38789189 332
2.104769 -1.8967898 0.33847603 363
1.7542645 -1.7930064 0.40902445 380
1.6362019 -2.3217802 0.45604107 416
1.5712715 -2.1670241 0.51592433 379.57144
1.7611269 -2.1618161 0.52343494 349.39999
1.8709235 -2.151228 0.52978194 350.5
1.9120167 -2.0717444 0.52527982 344
2.0226202 -1.9842733 0.55001748 271
2.1352525 -2.0086668 0.52680075 290
1.5921032 -1.8484309 0.57804066 421
1.7106657 -1.893106 0.5344708 332.5
1.854467 -1.8898393 0.53222108 309.25
1.9974761 -1.9158157 0.5076586 304.33334
1.4996951 -2.1460392 0.72063005 473
1.5705003 -2.1667948 0.65620798 437.80002
1.7174648 -2.167784 0.63372034 402.33334
1.8613189 -2.107651 0.61311036 355
1.6027286 -2.0088749 0.69222003 473
1.7210243 -2.0523372 0.66027212 405
1.8768477 -2.031601 0.62623715 375.33334
2.0151343 -1.9944963 0.6541779 341.75
1.4717114 -1.829373 0.72699511 567
1.588962 -1.8571738 0.70325315 486
1.7355746 -1.8973038 0.68525481 468.25
1.8703895 -1.9221766 0.68290806 334.5
1.4980375 -2.1338687 0.77840388 467
1.5444466 -2.1296792 0.84221506 398
1.6882198 -2.138767 0.83432579 407.66669
1.5988581 -2.0260627 0.7675429 410
1.9795841 -1.9857131 0.82414556 333
1.451583 -1.8004996 0.77436733 517
1.5825213 -1.8392166 0.81574106 484.20001
1.7204269 -1.8712686 0.81137127 453
1.8383379 -1.9289351 0.80197573 317
1.4399929 -1.7853416 0.85220134 527
1.5770494 -1.792586 0.84014452 511
1.5999634 -2.5782635 1.0045456 269
1.867128 -2.6062279 0.95515668 269
1.5393096 -2.4629538 1.046535 311
1.706676 -2.5449848 1.005975 294
1.8158286 -2.5118279 1.0084977 321
1.5493935 -2.1304598 0.97010183 404.33334
1.7247053 -2.1611614 0.96200466 393.5
1.7802716 -1.9531147 1.02107 365
1.8885742 -1.9904096 0.94616503 340
2.0017767 -2.0155931 0.96580231 300
1.4779046 -1.8465166 0.98417801 394
1.601319 -1.874868 0.96631831 323.80002
1.7042942 -1.9076443 0.9528864 347
1.5733567 -2.4515798 1.082664 316
1.7162756 -2.4465137 1.1141243 383.5
1.4964544 -2.3840368 1.1644828 435
1.5780029 -2.3695955 1.1336445 383
1.750638 -2.3804336 1.1573415 353
1.5608172 -2.1401544 1.1367342 440.5
1.7225096 -2.1590388 1.1168886 418.60001
1.5847852 -2.0142977 1.1994383 527
1.7331383 -2.0226755 1.1621674 375.66669
1.8560731 -2.0341182 1.1523638 388
1.5176914 -1.9098359 1.0955154 427
1.7219632 -1.930831 1.0868237 323
1.8333304 -1.8635068 1.0722022 347
1.5045018 -2.4038675 1.3136321 412
1.6764309 -2.4198382 1.2693754 317
1.492837 -2.3790748 1.2332677 357
1.5750244 -2.3425732 1.2678957 294.5
1.770707 -2.3972785 1.2760183 384
1.576331 -2.1582444 1.2770846 383
1.7373111 -2.1637559 1.2369461 392
1.8002582 -2.2179861 1.2993665 335
1.585206 -2.0175831 1.2954568 453
1.7446736 -2.0205793 1.2513689 422.66669
1.8866855 -2.0614839 1.2680352 381
2.0105143 -2.0325911 1.2140182 320
1.7506407 -2.3102689 1.4284347 329
1.8975418 -2.3194222 1.4713633 360.66669
1.6060448 -2.2315466 1.4083229 311
1.7232152 -2.0494838 1.3658159 359
2.2819743 -2.6952538 1.6194844 323
2.377305 -2.4010193 1.6313021 313
1.5754727 -2.258271 1.6103817 373
1.7230986 -2.3001356 1.5591516 359.5
1.8847464 -2.3231251 1.5432339 286.66669
2.5333049 -2.3235259 1.6460429 257
1.5838432 -2.2028408 1.6069367 486.66669
1.7432094 -2.1918545 1.5752568 431
1.9463885 -2.1054306 1.5702088 295
1.6049715 -2.0588424 1.6460105 641
1.7588061 -2.0604696 1.6296966 631
1.8305602 -2.0406082 1.6408117 313
2.3080413 -2.0848427 1.589372 287
1.6334929 -2.9294949 1.6766484 307
1.7318599 -2.8541703 1.7448788 319
1.850293 -2.8931746 1.6960038 305
1.9513505 -2.9003735 1.7157582 315
2.1163337 -2.9182892 1.706718 308
1.5928867 -2.7999754 1.7262752 305
1.7373537 -2.7706394 1.7386669 315
1.892259 -2.8330586 1.764622 311
2.0525162 -2.7996752 1.7827176 311
2.4410162 -2.7525487 1.7155603 299
1.5579515 -2.6895163 1.7256233 301
2.2131882 -2.6344471 1.7274927 314.33334
2.3045115 -2.6511645 1.7397125 314
2.4696579 -2.6109014 1.7203293 302.5
2.5759099 -2.697979 1.6824303 301
1.4729682 -2.5458114 1.7192597 389
1.6336416 -2.5494051 1.6789615 289
2.1951547 -2.463259 1.7685676 305
2.3167348 -2.4839449 1.725741 307.5
2.4634862 -2.437979 1.6641411 315
1.4486243 -2.308018 1.669228 501
1.6315712 -2.2995815 1.7353823 412
1.7472543 -2.3011441 1.666693 487
1.8500582 -2.3030803 1.7584109 415
2.3530273 -2.3420236 1.7265097 307
2.4203911 -2.3924727 1.7214596 315
1.6013709 -2.1769204 1.7002732 434
1.7299609 -2.1960778 1.7397087 378
2.0463302 -2.1530609 1.6990846 269.5
2.171448 -2.1198709 1.7058614 295
2.2570896 -2.2476428 1.705301 281
1.7817615 -2.0911829 1.7081559 379
1.8542061 -2.0820241 1.6647818 309
1.6652694 -2.7293997 1.8370273 307
1.8622407 -2.7401686 1.8415709 309.5
2.1335068 -2.7325959 1.857758 296
1.9227049 -2.6962421 1.8751117 313
1.9626229 -2.6076374 1.9205236 279
2.1504622 -2.6080317 1.8520088 313.5
2.3220572 -2.6311321 1.8212198 289
1.9259466 -2.5485382 1.8128475 502
2.1615367 -2.4828072 1.8442436 299
2.3762124 -2.4715481 1.8188148 305
2.1948903 -2.3818486 1.813158 277
1.8970147 -2.2470334 1.8100989 299
1.9515206 -2.2011592 1.8053446 271
