# .PCD v0.7 - Point Cloud Data file format
VERSION 0.7
FIELDS x y z intensity
SIZE 4 4 4 4
TYPE F F F F
COUNT 1 1 1 1
WIDTH 1
HEIGHT 106
VIEWPOINT 0 0 0 1 0 0 0
POINTS 106
DATA ascii
3.5043957 7.1824999 0.079675883 378
0.24239323 3.0670996 0.12520859 238.5
0.33364603 3.099005 0.10917285 245
0.5209105 3.0766237 0.11764877 288.5
0.58920848 2.8254399 0.24263115 282.5
0.10417205 2.9765489 0.24351434 300.60001
0.20865405 2.9831724 0.24202266 273.25
0.48937157 2.9352562 0.26146665 323
0.65806621 2.9107585 0.27687484 328
0.12370449 3.1435378 0.26831579 303
0.24553037 3.0591314 0.21105784 278.83334
0.53503096 3.0753629 0.21001898 291.5
0.66308522 3.0033431 0.21421033 190
0.11675745 3.1839194 0.22641325 315
0.34404343 3.1699176 0.15133315 263
0.58044702 2.8035526 0.39475545 310.33334
0.66718566 2.848906 0.44413993 311
0.10890003 2.9242198 0.36369777 312.66669
0.25201434 2.9452789 0.3588801 306.66669
0.53235573 2.9541574 0.3376649 315
0.64422989 2.9146543 0.37760103 311.66669
0.1369842 3.0781627 0.36280894 289
0.51693368 3.1035664 0.35026175 284.5
0.071927816 2.8471437 0.5765152 349
0.23785457 2.8253703 0.56864536 331
0.54761595 2.7578685 0.53545779 338.33334
0.67081302 2.8190441 0.52638614 316
0.11372262 2.885123 0.50828755 317
0.21525164 2.9306667 0.50767291 308.60001
0.39076942 2.9362195 0.52475846 317.80002
0.51481062 2.8911986 0.47798768 314
0.61426222 2.9718642 0.50869757 314.33334
0.15029502 3.0143564 0.466995 301
0.10600179 2.8452785 0.63569438 339
0.24584171 2.827271 0.66010648 348
0.3157095 2.8098898 0.65561652 349
0.53732902 2.7964263 0.67990273 339.33334
0.68040359 2.7923837 0.67643422 319.66669
0.10394451 2.8625712 0.70097399 332
0.17369939 2.8976059 0.67011744 324
0.44200146 2.9458864 0.66644633 324
0.62617928 2.9544985 0.66314304 315
0.25950545 2.8376031 0.82522297 363.66669
0.32991135 2.8353667 0.82280582 333.66669
0.5344969 2.7904537 0.84357309 367
0.69053066 2.76792 0.83745402 337
0.099872842 2.9087296 0.8086769 331
0.18528149 2.8854976 0.8012861 333
0.43492049 2.8696918 0.82534522 341.66669
0.6331411 2.8946309 0.82535601 315.66669
0.091213785 2.811542 0.99035704 320.33334
0.24927233 2.8399968 0.98994941 352.33334
0.54376876 2.7810755 0.96920729 369.66669
0.6982013 2.7448778 0.97169441 368
0.061777428 2.901535 0.98735547 317
0.20006157 2.8671651 0.97413671 332
0.38839668 2.8606038 1.0024683 332.5
0.50232291 2.8518512 1.0343502 307
0.64491677 2.8726315 1.0011954 315
0.12700601 3.0500045 0.97803855 297
0.55570519 2.6851914 1.0634202 327
0.065421224 2.8236053 1.1533449 304
0.26088041 2.7876401 1.1221476 321.66669
0.39673418 2.7857053 1.1224037 318
0.51622409 2.7578311 1.1314641 365.66669
0.67765129 2.7677777 1.1215308 311.5
0.13345754 2.8610582 1.1605022 298
0.21765278 2.8615661 1.1943673 311
0.36186644 2.9154446 1.128527 293
0.29349834 2.7843041 1.2426783 361
0.4004181 2.7801476 1.2756042 326.75
0.55944753 2.7371974 1.2593745 345
0.73203188 2.8297493 1.2528188 301
0.06043224 2.8770616 1.2836066 315
0.43746945 2.9900196 1.2252927 378
0.50188649 2.8744495 1.2667581 309
0.22069253 3.0364852 1.3264353 263
0.44380862 3.1173124 1.3454307 261
0.087711185 2.8262596 1.4927791 72
0.07346876 2.9523516 1.4650064 206
0.5098747 2.9827535 1.3809545 315
0.76447093 2.9710641 1.4183018 319.5
0.22978394 3.0565724 1.4545476 302
0.37209845 3.0395298 1.4441781 264
0.51311386 3.0324829 1.4791453 255
0.014235169 2.9256835 1.6157662 78
0.2193222 2.9745121 1.5448711 211
0.312796 2.9277132 1.5223395 202
0.50479901 2.9379721 1.5225077 208
0.76703751 2.9134398 1.553823 246.5
0.19707349 3.0075932 1.6390282 255
0.43596643 3.0170274 1.5549937 308
0.67643082 3.0250103 1.6384469 132
0.75427067 3.0332842 1.6436609 58
0.55352867 2.7796252 1.7473803 56
0.64353347 2.7919805 1.6845435 124
0.79403162 2.845814 1.7873918 316
0.40577441 2.9794514 1.7738891 320
0.58213782 2.9846759 1.6984731 248
0.70164657 2.9476466 1.7215052 304
0.4278931 3.0991893 1.7239811 186.66667
0.57970035 3.0858412 1.6633563 164
0.80284286 3.0667429 1.7401249 296
0.79078913 2.9280071 1.8280374 264
0.25804865 3.0306149 1.8031182 140
0.80302703 3.0317326 1.8031675 416
