# .PCD v0.7 - Point Cloud Data file format
VERSION 0.7
FIELDS x y z intensity
SIZE 4 4 4 4
TYPE F F F F
COUNT 1 1 1 1
WIDTH 1
HEIGHT 54
VIEWPOINT 0 0 0 1 0 0 0
POINTS 54
DATA ascii
0.74876481 4.1700687 0.11563219 224
4.1314225 -2.6141806 0.060009949 293.75
4.3482914 -2.6152174 0.14755847 202
4.4180717 -2.6109095 0.075746283 291.33334
4.5583906 -2.5629315 0.0019361675 273
4.4505467 -2.5089564 0.14367303 316
4.5243616 -2.547997 0.068561196 275
4.0393591 -2.5596542 0.19727844 370
4.082798 -2.5676436 0.19541633 333
4.3281059 -2.5940127 0.22352603 260
4.2966952 -2.5446393 0.22446731 296
4.378603 -2.4707391 0.22175574 314
4.0435095 -2.5526443 0.39206499 366
4.0312929 -2.5385911 0.33692965 370.66669
4.2596674 -2.4901853 0.34747088 374.66669
4.1462517 -2.8716693 0.5889315 273
4.061409 -2.5627286 0.51097691 360
4.1536326 -2.4887426 0.53483438 365.20001
4.2824607 -2.4267321 0.47888863 382
4.3662782 -2.4178443 0.57622772 400
4.2279134 -2.3980739 0.57103127 382
4.1410799 -2.8583341 0.69006622 281
4.0446897 -2.7180815 0.67760074 400
4.1164284 -2.71033 0.68044126 269
4.0475588 -2.5681405 0.66928887 354
4.1100636 -2.5611427 0.67185676 307
4.249404 -2.4843922 0.6745168 281.66669
4.419848 -2.3757782 0.67755294 263
4.1636138 -2.8653429 0.79789054 289
4.1119609 -2.747683 0.82256269 332.66669
4.0111136 -2.5513048 0.86988103 2555
4.0999074 -2.6078382 0.77591211 301
4.0359941 -2.5031974 0.76469851 2701
4.1348467 -2.4842823 0.84002936 1194.3334
4.2597709 -2.4879935 0.81480086 301
4.1828327 -2.3830726 0.87156522 1513
4.1194305 -2.7783005 0.95321643 309
4.1131854 -2.6137922 0.99312389 320.33334
4.270627 -2.4971695 0.9990381 308.33334
3.990747 -2.7101679 1.100952 2021
4.0811572 -2.7604234 1.1174439 317
4.039546 -2.6200278 1.0968463 2117
4.1137385 -2.6291175 1.1069285 311
4.2119694 -2.5930035 1.1152523 293
4.2535143 -2.4863453 1.1095121 526.33337
4.0832291 -2.7657602 1.2347057 336
4.1368175 -2.6171937 1.2631681 736
4.2728748 -2.6237969 1.2443402 285
4.1830316 -2.515132 1.218401 605
4.2788267 -2.4649215 1.226783 258.5
4.2079134 -2.7012887 1.3647933 275
4.1380849 -2.6571162 1.4674201 255
4.1344957 -2.5146763 1.4455348 370
4.0888805 -2.6269658 1.5737813 372
