# .PCD v0.7 - Point Cloud Data file format
VERSION 0.7
FIELDS x y z intensity
SIZE 4 4 4 4
TYPE F F F F
COUNT 1 1 1 1
WIDTH 1
HEIGHT 83
VIEWPOINT 0 0 0 1 0 0 0
POINTS 83
DATA ascii
0.70744145 4.9899178 0.66960967 239
2.4828937 4.5197535 1.4888799 315
2.5627146 4.5429344 1.3704455 231
2.5242856 4.4750051 1.6111169 279
2.626018 4.3925381 1.6004071 344.5
2.1520805 4.5296965 1.5963322 370
2.3052869 4.530149 1.6071736 237
2.1731563 4.722312 1.5789561 349
2.6569591 4.4817667 1.7566103 281
2.0706017 4.6092272 1.7401286 279
2.2933619 4.5076885 1.7297282 342
2.4316127 4.5041752 1.7408385 243
2.5783906 4.5864425 1.7762247 277
1.808912 4.7478547 1.7623008 277
2.2495182 4.7685981 1.7967288 249
2.0430326 4.312849 1.9033562 285
2.0907443 4.3900747 1.8070437 255
2.6633139 4.4728022 1.8884059 382
2.0319338 4.6442761 1.8781022 243
2.3721874 4.521224 1.871418 291
1.8490462 4.7968812 1.9115182 299
2.1448841 4.7713733 1.9249843 271
2.3575902 4.6888146 1.9189718 365
2.7116289 4.7385645 1.8290137 510
1.9454516 4.8649549 1.9384902 259
2.0385206 4.4745188 1.955055 253
2.2593942 4.4446669 1.9669129 267
1.7854211 4.6101747 1.9790945 270
1.9505877 4.6320233 1.9987568 275
2.3737495 4.6109357 2.031641 367.5
2.5344059 4.5067701 2.0169837 488
2.0570183 4.7147393 2.0345345 279
2.2396247 4.7532711 2.063453 327
2.5409245 4.6848297 2.0732319 494
2.6235957 4.7778072 1.9711903 482.5
1.9524209 4.8898773 2.0833993 243
2.4154017 4.4038811 2.1003959 233
2.1633208 4.7625299 2.1948457 253
2.3740466 4.6760812 2.1876783 291
2.0370266 4.8400903 2.2100074 622
2.3466871 4.5910964 2.2886612 231
2.4019568 4.5972066 2.297946 271
2.0361571 4.6682978 2.2817316 386
2.2644408 4.8217254 2.3636577 245
2.0185449 4.7308731 2.4359517 440
2.1670227 4.7172208 2.4474111 342
5.1863537 -0.17863563 0.082378499 314.5
5.3427439 -0.078710482 0.073790848 301.5
5.0685363 0.12974478 0.089100048 372
5.1493826 -0.18840817 0.23701248 363
5.3360209 -0.066783175 0.23269138 348
5.0606284 0.1377255 0.19855553 372
5.1103144 0.1446678 0.27874315 336
5.1847215 0.38799477 0.23630306 399
5.1869774 -0.19821489 0.36682469 366
5.4106345 -0.058810338 0.36744633 320
5.1286345 0.15073009 0.36656484 394
5.1933465 0.37974641 0.36724395 356
5.1927662 -0.20677944 0.51130021 379
5.3397799 -0.049155101 0.51612604 281
5.1360431 0.15922028 0.50921339 398
5.2245417 0.37315416 0.51293057 381
5.168294 -0.21400701 0.66383076 368
5.4083319 -0.040909097 0.67874444 255
5.3514447 0.1481033 0.67530096 253
5.1730614 0.16873626 0.66396189 307
5.1965833 0.36209372 0.66648668 422
5.3890033 -0.034836341 0.79003865 422
5.3582201 0.13937636 0.84532058 360
5.0901613 0.17130482 0.76470232 2197
5.2442708 0.18237086 0.89168489 289
5.1792498 0.35188574 0.82987171 292
5.4511013 0.13280098 1.0359573 295
5.1984649 0.18620864 1.0028265 309
5.0613899 0.33473474 0.98604977 1731
5.4622836 0.12702195 1.1624701 289
5.1953201 0.19159125 1.1211277 305
5.2416396 0.34130868 1.1299002 285
5.3974257 0.20517498 1.2793192 269
5.1768122 0.33091417 1.2408965 303
5.3330436 0.20822796 1.3952316 390
5.2069755 0.32698032 1.3708129 283
5.2709837 0.067037694 1.5091491 233
