# .PCD v0.7 - Point Cloud Data file format
VERSION 0.7
FIELDS x y z intensity
SIZE 4 4 4 4
TYPE F F F F
COUNT 1 1 1 1
WIDTH 1
HEIGHT 119
VIEWPOINT 0 0 0 1 0 0 0
POINTS 119
DATA ascii
-0.33720979 -2.4818203 0.14792958 252
-0.19941798 -2.4655271 0.14715333 245
-0.13606337 -2.4876766 0.14404255 281
-0.33109382 -2.5732615 0.28062484 282
-0.37100697 -2.4528284 0.21505037 286.75
-0.21708825 -2.4996729 0.17058638 279
-0.072993673 -2.4310863 0.21021169 304
-0.36003879 -2.3926592 0.25723994 300
-0.19682555 -2.3248398 0.23476166 309.28574
-0.094378315 -2.3089769 0.25075468 320.86667
-0.32828933 -2.4691894 0.32798195 289
-0.29180473 -2.460969 0.38928866 309.66669
-0.36285552 -2.3689167 0.36723694 311.80002
-0.20875131 -2.3161969 0.35523659 311.70001
-0.10438173 -2.3104234 0.36403078 325.15387
-0.068261117 -2.4001918 0.54819775 311
-0.34757978 -2.3327739 0.50857991 318.55557
-0.22521324 -2.3175163 0.52610397 332.375
-0.10404428 -2.3207603 0.51421595 324.85715
-0.083031625 -2.4430404 0.66025823 301
-0.36535951 -2.3290453 0.66321516 315
-0.23103854 -2.2953446 0.67014486 341.72729
-0.10882263 -2.35517 0.6686613 329
-0.1101923 -2.4531083 0.82686931 311.80002
-0.36773846 -2.2899532 0.78918046 313.66669
-0.20174515 -2.2846339 0.79686326 363.60001
-0.14332831 -2.3279505 0.81789923 339
-0.33257502 -2.2364259 0.85375303 334.33334
-0.24535537 -2.2395265 0.84290963 363.39999
-0.16278023 -2.4255781 1.0262372 309
-0.073964976 -2.480046 0.9846397 293.875
0.025689617 -2.4767969 1.0260407 172
-0.35697973 -2.2794013 1.0066279 311.5
-0.2174792 -2.2870083 0.9643203 327.5
-0.096933506 -2.3232136 1.0091217 306
-0.34484503 -2.238513 0.93422061 330
-0.25107381 -2.2402647 0.92561924 341
-0.11755776 -2.1992929 1.0216647 414
-0.54260927 -2.4576507 1.1247789 291
-0.18748319 -2.4061751 1.1206546 303
-0.047891576 -2.4796731 1.13762 326.60001
-0.47861972 -2.3742087 1.1104674 309
-0.37333664 -2.3519821 1.1242743 301.75
-0.24620657 -2.341275 1.1023501 309.57144
-0.079573631 -2.2958424 1.1083899 375
-0.12192062 -2.2194061 1.0879822 307
-0.01036492 -2.8193011 1.3454626 180
0.083934963 -2.831058 1.34324 294
-0.064587921 -2.6642773 1.2960899 235
-0.54462248 -2.4942551 1.2579535 278
-0.37426659 -2.4558437 1.2866999 285
-0.22878937 -2.4625785 1.2698599 298
-0.10295956 -2.4819636 1.2593455 299
0.053092297 -2.8681564 1.4349712 251.66667
-0.19640717 -2.7824492 1.4741955 344.66669
-0.065775931 -2.7978714 1.4363257 373.125
0.08912053 -2.806509 1.4392585 288
-0.50758696 -2.6519523 1.4516329 320.25
-0.23522457 -2.5904446 1.4282146 292
0.18110946 -2.6417058 1.4835188 176
-0.54053426 -2.5219522 1.3968031 239
-0.33825237 -2.4447598 1.4176705 305.5
-0.23772314 -2.4378955 1.4541993 304.10001
0.017134756 -2.8673708 1.5141599 275
-0.52313507 -2.7273841 1.5202549 261
-0.18125689 -2.7805383 1.5472269 282.33334
-0.065278374 -2.7570434 1.574813 341
0.067962304 -2.7524664 1.5557245 305
-0.49572617 -2.6385188 1.5554128 345
-0.43946061 -2.5938349 1.5989642 404
-0.19072565 -2.6805944 1.5669835 350
-0.10496062 -2.6412354 1.6211818 232
0.063347265 -2.6612172 1.5925187 284
0.22726344 -2.5784118 1.587396 298.33334
-0.48456267 -2.4880028 1.593796 249.5
-0.37870836 -2.4930511 1.5677772 341
-0.19655129 -2.4217911 1.551753 323
0.25326258 -2.4692061 1.6258024 285.66669
0.33662605 -2.4197884 1.5682955 208
-0.50317049 -2.3660409 1.638746 386
-0.30265221 -2.3484063 1.5325979 302
-0.2619555 -2.3755589 1.5699675 276.25
0.25608572 -2.3167062 1.6300161 223.33334
0.3357808 -2.2875946 1.583703 272
0.27606007 -2.2216606 1.6259434 136
0.33417934 -2.2071292 1.6154988 250
0.2875199 -2.0888271 1.6340556 186
-0.21605656 -1.903335 1.6488804 350
-0.079140395 -2.7496362 1.6931316 259
-0.40544358 -2.5661793 1.6502019 252
-0.28991529 -2.6176229 1.7242732 265
-0.053900953 -2.5971267 1.7079051 262.80002
0.0080439746 -2.5902333 1.6745043 204
-0.45286408 -2.4496884 1.7008934 330.5
-0.37418288 -2.4480445 1.7007455 328.125
-0.20798606 -2.4645233 1.7144213 237.14287
-0.045490623 -2.4459195 1.7258341 230
0.080477104 -2.4877331 1.7067385 313
0.17205966 -2.4551253 1.6725105 219.33334
-0.47422966 -2.2926722 1.6570352 148
-0.37529543 -2.312361 1.7299484 258
-0.24077855 -2.3180821 1.7568741 195.2
-0.077070341 -2.3237343 1.7702768 234.85715
0.068772972 -2.3044088 1.7530437 278
0.17962919 -2.3360097 1.695941 235.5
-0.35298508 -2.1713977 1.7388815 216.33334
-0.23284227 -2.1474411 1.7627715 190.33334
-0.084761836 -2.1614535 1.7778183 248.40001
0.058559444 -2.1717448 1.7414601 196.5
0.21777539 -2.188592 1.69429 241.83334
-0.34721333 -2.0468612 1.694153 209
-0.22389908 -2.0198724 1.7162338 164.8
-0.04734429 -2.0201755 1.7386634 238
0.065733954 -2.0445857 1.7024091 213.14287
0.16690034 -1.9963086 1.6527351 200
-0.21144286 -1.8973839 1.6580815 273
-0.074778289 -1.8440324 1.6528156 188
0.034319565 -1.8905475 1.6579363 179
0.032956988 -2.4091246 1.8023286 279
