# .PCD v0.7 - Point Cloud Data file format
VERSION 0.7
FIELDS x y z intensity
SIZE 4 4 4 4
TYPE F F F F
COUNT 1 1 1 1
WIDTH 1
HEIGHT 202
VIEWPOINT 0 0 0 1 0 0 0
POINTS 202
DATA ascii
-0.63199961 -3.6020322 0.094960511 240
-0.021555191 1.7600379 0.26566491 419.66669
0.078070126 1.7714243 0.26068714 384.52942
-0.063645005 1.8968694 0.21311511 322
0.049527179 1.8593836 0.22041884 337
-0.10818173 1.9831882 0.24036717 300.5
-0.027369943 1.7496504 0.35394338 431.28574
0.073083028 1.7563993 0.36760712 411.00003
0.15254399 1.7126206 0.41825557 463
-0.032303125 1.8539745 0.3986581 386
0.073454894 1.8337977 0.33244443 313
-0.098368734 1.9926707 0.38096881 326.88889
0.032264069 1.9958495 0.36290663 317
0.11579567 2.1337342 0.43532747 261
-0.038329925 1.727465 0.53447884 501
0.066213995 1.7096906 0.50869793 581.08337
0.15974459 1.7239496 0.50617707 541.5
-0.094022572 1.8904905 0.51927608 340.5
0.13162631 1.8787597 0.53967869 551
0.18892905 1.9189637 0.56981301 426.33334
-0.16852933 1.9827765 0.56460071 279
0.11821161 2.0858307 0.47367471 304
0.21315457 2.0371418 0.57469213 332
-0.051902264 1.7281132 0.67573816 506.8667
0.051231854 1.7335103 0.66423565 584.89471
0.19258587 1.7710874 0.67149067 268.5
-0.11482456 1.8321288 0.66155493 309.66669
0.11924365 1.8354119 0.70309037 382.44446
0.19737139 1.8532999 0.69683069 319.91669
-0.13175121 1.9530026 0.60392272 285
0.21783403 1.9906179 0.63743067 288
-0.044670284 1.7490048 0.83824629 496.5
0.058954362 1.7549193 0.82471287 417.76926
-0.11287122 1.8452001 0.82021224 328.33334
0.10079167 1.859045 0.81811112 407.20001
0.22300319 1.8750553 0.78953409 293.33334
0.27577958 1.9720706 0.82722676 156
-0.051677633 1.7428473 0.97813755 557.22223
0.051166065 1.7575697 0.98079354 542.85718
0.1796647 1.7757316 1.0029867 615
-0.16553369 1.8818662 0.98596352 247.33334
-0.11841618 1.8640354 0.97580624 332.33334
0.081396088 1.8476944 0.96909142 447.88889
0.17454866 1.8312367 0.97443855 489
0.13187085 1.983408 0.94032991 249
0.17049214 2.0907972 0.91470325 289
-0.044287104 1.7400036 1.118385 478.55557
0.050415661 1.7375842 1.110078 534.41174
-0.13784671 1.8669542 1.122032 285
0.10581335 1.8744912 1.1610035 255
0.17814216 1.852537 1.0804837 398.33334
0.19873565 2.0390897 1.1709914 382.5
-0.0083248913 1.7353021 1.2040364 355
-0.15604284 1.9488837 1.3240329 398
-0.073417023 1.9082062 1.3134809 306.39999
0.018301114 1.9246423 1.3154278 384.5
0.21070153 2.034914 1.222687 295
0.59801733 2.0524228 1.3325307 343
0.27248335 2.1167345 1.2547835 259
-0.084950656 1.9031438 1.3956106 322.76926
0.014570683 1.9153219 1.3828498 302
0.64042723 1.8825575 1.4754701 318
-0.092736274 1.9638321 1.3979508 245
0.0081731528 2.030786 1.4430691 275
0.59682941 2.0585232 1.4864599 307
0.65204573 2.0049574 1.482298 311.5
0.60760832 2.1189814 1.4437438 293
0.52750874 2.3039372 1.4792554 325.5
-0.089787014 1.8846632 1.5980556 317.71429
0.057326704 1.8307917 1.6240156 339
0.52911144 1.884904 1.5525897 309.5
0.62910563 1.9160957 1.5438221 318
-0.088402614 2.0191829 1.6134536 294.33334
0.27798402 2.0597255 1.6165667 390
0.54688609 2.0266302 1.5887007 298.55557
0.62237704 2.0343618 1.5415357 307.5
-0.12002063 2.1364431 1.6379077 276
0.34456342 2.2010047 1.6107719 354
0.52323288 2.1964116 1.5864379 290.71429
0.6135062 2.1769195 1.5258043 307
-0.042009167 2.2829156 1.6181077 364
0.066009499 2.3367765 1.6235663 307.88889
0.20096613 2.3987746 1.6219162 305
0.3920064 2.364841 1.5886995 291.25
0.50564671 2.3051052 1.583901 301.90909
0.62757075 2.3097637 1.5138108 271
0.12564541 2.4125803 1.5949939 310.33334
0.23783442 2.4515114 1.5872263 310
0.35331523 2.4192743 1.5667076 298
0.076498441 1.9107221 1.6740478 312.20001
0.2519564 1.9368581 1.6931999 268
0.42274892 1.943326 1.6718788 291
-0.030655462 1.9978818 1.6683953 295
0.055257477 2.0312963 1.697052 296.60001
0.23356974 2.0305738 1.7195958 295.60001
0.36687845 2.0398247 1.6796381 345.88889
0.4701702 2.0515475 1.6904752 330.75
-0.03848369 2.199394 1.685379 292.80002
0.070193589 2.1766815 1.7142607 294.84616
0.20989414 2.1782682 1.7258278 287.58823
0.3853384 2.1735191 1.6822209 312.21429
0.47771072 2.1541936 1.6762202 356.20001
-0.022789419 2.2619638 1.6734662 305
0.071604736 2.2699592 1.6776152 305
0.20889997 2.3424146 1.690766 290.73334
0.37715098 2.3018119 1.6514362 307.66669
0.47976416 2.3039479 1.6695727 269
0.27002445 2.466429 1.6541579 295
2.214818 3.5598783 0.096451014 318.5
2.3061576 3.5124328 0.071710601 301.33334
2.4411659 3.5996435 0.015793771 338
1.7414067 3.6797781 0.077180788 287.5
1.8134658 3.6999462 0.11983027 307.33334
2.2306483 3.612658 0.11708483 277
2.2651315 3.6085272 0.06773898 285
2.0786085 3.57372 0.1781213 398
2.1832407 3.5719335 0.23928754 293.5
2.318953 3.5221434 0.22963412 310.5
1.8291872 3.7179308 0.20529571 271
2.1128304 3.6270347 0.23383115 269
1.8550014 3.7558351 0.24249557 273
2.015738 3.7575698 0.26858729 285
2.0894814 3.5382848 0.41283557 291
2.1740265 3.5424914 0.38726491 297
2.3189821 3.53578 0.39608943 296
1.9467776 3.715205 0.35547107 298.5
2.0295393 3.6627941 0.38428518 284.60001
1.8646767 3.7802429 0.3621501 307.60001
1.9624068 3.7748785 0.40955383 332.5
2.0386169 3.5354149 0.54567927 297.80002
2.1536808 3.5370576 0.55369693 315.5
2.0123806 3.7025957 0.52244258 292
1.8995878 3.820051 0.52972972 257
1.9485227 3.5218849 0.67575181 295
2.0529625 3.5534611 0.67948472 293
1.9156376 3.6944032 0.69095194 288
2.0072544 3.6748652 0.6035744 281
1.9081956 3.8212736 0.61408281 267
2.012625 3.5547242 0.80281204 288.60001
2.110594 3.5888276 0.86467135 259
1.9557965 3.6348438 0.82021511 290
1.9163167 3.7920046 0.83855617 277
2.0827456 3.4171188 1.0271865 265
2.1673419 3.3926258 0.9337517 286
1.9458594 3.5302172 0.99221158 298
2.0345612 3.4954991 0.99041975 296
2.1523881 3.4671659 1.0394931 279
1.8770099 3.673059 0.96424139 386
1.9663966 3.6309767 0.96087122 281
2.4407773 3.4014466 1.1466533 376
1.9378322 3.5186064 1.1339183 307
2.0104768 3.5194204 1.1384318 295
2.3075814 3.4622238 1.1475859 286
1.9188288 3.7393873 1.1255352 279
1.9629182 3.6057167 1.0534632 297
2.051393 3.536906 1.2447267 279
2.0121534 3.6763678 1.2722974 278
2.1505303 3.681483 1.2832381 245
2.0855372 3.5637946 1.4080834 351
2.2114854 3.5859306 1.3724251 286
2.0043259 3.6522894 1.3706682 368
2.1302238 3.6620059 1.4365463 281.5
5.4916086 -0.53756994 0.10333498 358
5.51756 -0.40436223 0.064340763 341
5.5780869 -0.38490844 0.061067879 374
5.3095961 -0.26294217 0.039402872 240
5.4487638 -0.23726866 0.080831453 261.66669
5.5231342 -0.53114283 0.22868773 347
5.5798497 -0.39666456 0.22725429 336
5.4780498 -0.2466329 0.1853686 326
5.5979576 -0.25212213 0.27163345 328
5.5450406 -0.52363354 0.36885944 372
5.5376005 -0.40265712 0.3684392 368
5.5858889 -0.38714901 0.3685548 380
5.5840292 -0.25132209 0.36824402 360
5.5464435 -0.51075131 0.57784677 301
5.5712109 -0.51969886 0.47108865 422
5.7591734 -0.5720337 0.58734596 231
5.563149 -0.39467919 0.52401662 374.75
5.5752091 -0.25064197 0.52382052 368.75
5.6388483 -0.091742173 0.47122055 249
5.4596477 -0.49594009 0.68433321 1813
5.7632685 -0.57846224 0.70441842 259
5.5455484 -0.36503088 0.68874562 301
5.5623002 -0.42213872 0.69022942 305
5.4906378 -0.26381686 0.68464816 499
5.643827 -0.23567793 0.69430161 301
5.5777097 -0.50066334 0.80908036 311
5.701117 -0.5778271 0.82054138 273
5.4473839 -0.38535705 0.79677868 2128
5.4708428 -0.26862273 0.79789329 1065
5.6422682 -0.2292304 0.81238294 261
5.5679421 -0.70979279 0.93320715 380
5.4872561 -0.47921997 1.0441279 2145
5.61376 -0.53594375 0.93526912 307
5.5346465 -0.34512922 1.048618 443
5.6005182 -0.39653051 0.93209916 302
5.5202122 -0.24709383 1.0458105 596
5.5826101 -0.25036481 0.92887485 303
5.6185026 -0.58347136 1.1274924 287.5
5.5242176 -0.44210765 1.1754152 1525
5.585114 -0.44144306 1.0564665 317
