# .PCD v0.7 - Point Cloud Data file format
VERSION 0.7
FIELDS x y z intensity
SIZE 4 4 4 4
TYPE F F F F
COUNT 1 1 1 1
WIDTH 1
HEIGHT 168
VIEWPOINT 0 0 0 1 0 0 0
POINTS 168
DATA ascii
1.0424839 7.199657 0.03108117 254
5.9611735 -5.634306 0.051104486 414
6.052712 -5.6694918 0.046808183 418
6.6869564 -5.1460595 0.023553371 436
6.6502399 -5.0654578 0.025840431 406
6.7772074 -4.9211245 0.14824189 410
5.9403863 -5.5965605 0.17624433 390
6.0016713 -5.6283484 0.17431812 422
6.4159255 -5.177062 0.29589909 386
6.7344289 -5.1495361 0.28948116 402
6.6496172 -5.0862327 0.1986085 392
6.8593826 -4.9695144 0.28500935 418
6.0093946 -5.6444883 0.30999643 420
5.8883963 -5.5279307 0.31087276 434
6.3857427 -5.1549373 0.44118124 434
6.4520469 -5.1910706 0.44169396 418
6.6604414 -5.087924 0.4381966 353
6.7018437 -4.8335023 0.43218765 245
6.8077612 -4.9405088 0.43415833 420
5.9547863 -5.5872145 0.4548108 406
5.9644718 -5.3290176 0.59772074 432
6.0310707 -5.3367362 0.59851021 436
6.1889067 -5.2776556 0.59749752 410
6.2044749 -5.214889 0.59527093 420
6.3466334 -5.1296425 0.59337723 402
6.3389454 -5.0797944 0.5914892 428
6.5699916 -5.0342937 0.59211594 410
6.8158307 -4.9544859 0.59195668 454
6.7140889 -4.8270922 0.58647931 418
5.9496794 -5.5525064 0.60636985 412
6.0425024 -5.693315 0.61254644 402
6.2464371 -5.0523748 0.74825329 388
6.4699702 -4.9617729 0.74947816 440
6.6461215 -4.8334994 0.74809265 398
5.9327941 -5.5926671 0.76920772 414
6.0204325 -5.6032476 0.77160048 442
6.08568 -5.449966 0.76485205 430
6.0048089 -5.2950783 0.75493646 253
6.2525263 -5.290699 0.7604053 439
6.4249105 -5.1350064 0.75676823 404
6.6128383 -5.0068321 0.75536585 430
6.8125648 -4.8848166 0.75502086 233
5.992507 -5.6590075 0.94451618 444
6.0084872 -5.5730667 0.93918097 440
6.1100082 -5.480063 0.93660808 233
6.074224 -5.3414884 0.92599273 414
6.6016507 -5.265101 0.94198608 422
6.1169038 -5.2279205 0.92014062 398
6.256783 -5.2264895 0.92555285 418
6.3128424 -5.1156807 0.92071247 428
6.6344047 -5.1007471 0.93314672 241
6.7240562 -5.0778489 0.93557358 420
6.944057 -4.9665046 0.93855405 506
6.7727532 -4.9368944 0.9292233 440
6.0801868 -5.7529597 1.1342076 440
6.0601568 -5.6043897 1.1206647 231
6.029707 -5.4116917 1.1030535 404
6.2617435 -5.4956594 1.1224144 430
6.3371587 -5.4320278 1.1214031 446
6.3356104 -5.2776914 1.1090245 470
6.331851 -5.1387653 1.0979165 430
6.5029731 -5.1658249 1.1099062 434
6.6139913 -5.0915494 1.1107919 402
6.0650105 -5.9007668 1.3354143 510
6.0597582 -5.7397237 1.3186978 476
6.222508 -5.6702781 1.3228875 456
6.1437011 -5.3691902 1.2878734 418
6.2681103 -5.3770933 1.2975554 233
6.2180595 -5.3388553 1.4788929 235
1.4931037 -6.2079763 0.13411462 272
1.5833805 -6.057868 0.094501793 307
1.7480379 -6.0885057 0.086742125 367
1.9251677 -6.0660539 0.12049241 236
1.9599876 -6.0314884 0.11996876 266
1.6083038 -5.997098 0.09566737 359
1.507434 -6.3034415 0.22347285 316
1.3200035 -6.2761374 0.23064303 314
1.6308354 -6.1284075 0.22119433 310
1.7832868 -6.0975704 0.21594328 284
1.3372558 -6.3524113 0.36555833 253.33334
1.5015596 -6.3435011 0.32360843 302
1.3084716 -6.1625338 0.43518382 268
1.4934294 -6.2633438 0.37744731 309
2.0045307 -6.2562628 0.36113855 305
1.4676167 -6.1122708 0.42936593 296
1.6241474 -6.1239944 0.31898317 308
1.7926538 -6.1252871 0.3844685 382
1.8016285 -6.1180878 0.31303042 326
1.9634564 -6.0752492 0.30752614 216
1.5165222 -6.3028684 0.54803646 296
1.6319616 -6.0590272 0.53606808 304
1.8045757 -6.1394243 0.53461063 384
1.9698446 -6.1259856 0.53007406 240
1.43525 -5.9928455 0.53883141 344
1.496244 -6.3241119 0.67316127 186
1.6674719 -6.3634315 0.67146683 318
1.6932673 -6.2789507 0.66623366 372
2.007102 -6.2155352 0.65640765 322
1.4967902 -6.1449146 0.66318655 324
1.797465 -6.1455994 0.65669322 200
1.8215599 -6.1396012 0.65587366 402
1.6223357 -6.1722717 0.7902323 288
1.6986355 -6.2493777 0.79469949 330
1.8289838 -6.2030048 0.78911448 363
2.014765 -6.2268038 0.78820741 302
1.6636089 -6.3745227 0.94331193 278
1.8418432 -6.3499002 0.93881428 464
1.8687094 -6.2292852 0.92704582 412
1.4978572 -6.033659 0.91286552 198
1.7212214 -6.0781422 0.98285633 354
1.5726429 -5.9706283 1.0408106 330
1.6640186 -5.9941583 1.0428424 378
1.981367 -6.2138901 1.0669516 326
1.5156215 -6.0033798 1.1861819 386
1.7012666 -6.1010942 1.1991763 282
1.8550311 -6.1279235 1.0573831 382
2.0416493 -6.1496935 1.0594027 336
1.5547986 -5.9001069 1.1715037 370
1.7086476 -5.8326011 1.1617274 378
2.0058916 -6.3129659 1.2288524 310
1.9073496 -6.280479 1.2241114 342
1.7188022 -5.8832664 1.3124837 396
1.7118185 -5.8638973 1.4559788 372
4.1419754 -1.832975 0.072345942 342.5
4.2758446 -1.8576615 0.063445836 263
4.260643 -1.7521981 0.05664755 312.33334
4.395627 -1.6839166 0.057822712 338.5
4.154932 -1.8210573 0.19497183 368
4.2243495 -1.8407228 0.15812175 370
4.1024055 -1.7981787 0.22980464 360
4.2514238 -1.7245622 0.22696033 299.66669
4.3571501 -1.662358 0.19867031 386.66669
4.2876191 -1.6366153 0.29699838 405
4.1565094 -1.8167667 0.35244057 372
4.108932 -1.7946758 0.30113834 366
4.2679262 -1.7593349 0.37739992 332
4.2965617 -1.6391708 0.37565914 405
4.1754327 -1.8230489 0.50487041 369.5
4.2716322 -1.746693 0.50504792 333
4.2755651 -1.6288531 0.50217068 393.5
4.2419825 -1.8419194 0.67584348 331.33334
4.2649574 -1.7224194 0.69791758 334.60001
4.3126373 -1.6326107 0.67191929 317.33334
4.4175625 -1.5551559 0.69149333 282.75
4.2795572 -1.8986297 0.79585695 270
4.1585326 -1.7540658 0.82717222 2210
4.2170115 -1.6792791 0.82851958 1413
4.1752844 -1.6144844 0.8208524 2657
4.2633429 -1.5879635 0.82807958 2337
4.449934 -1.5655282 0.84544307 269.5
4.2814217 -1.9312043 0.95452839 250
4.1401367 -1.7544903 1.0279506 295
4.255589 -1.7331537 0.99022406 322.33334
4.2442503 -1.6469283 0.93072534 327
4.3874788 -1.6032035 0.99825025 311
4.5315413 -1.5310484 0.95855463 337.5
4.2424536 -1.9099915 1.1090508 326.5
4.1660695 -1.7526535 1.1368604 2361
4.2681718 -1.6724888 1.1466153 779
4.3029647 -1.5833564 1.1451143 2261
4.3536277 -1.5726582 1.1527034 341
4.3717041 -1.9603493 1.3034561 261
4.3159728 -1.8183856 1.2787628 308
4.3847742 -1.7195952 1.2820699 288
4.4699144 -1.6214968 1.2892919 293
4.2833848 -1.8101727 1.4982678 412
4.2870502 -1.7237072 1.4435571 262.20001
4.356204 -1.7029719 1.3882829 291
