# .PCD v0.7 - Point Cloud Data file format
VERSION 0.7
FIELDS x y z intensity
SIZE 4 4 4 4
TYPE F F F F
COUNT 1 1 1 1
WIDTH 1
HEIGHT 118
VIEWPOINT 0 0 0 1 0 0 0
POINTS 118
DATA ascii
6.4920969 3.8406987 0.042186469 326.5
5.7179995 4.3012381 3.2765582 394
5.8615251 4.4091306 3.1704071 416
5.6438766 4.2951074 3.4240408 428
5.5179224 4.4381785 3.4261637 414
5.6478114 4.4773335 3.3049705 420
5.7607183 4.4036355 3.3188934 430
5.6302476 4.5488086 3.3204393 432
5.6515989 4.2866015 3.5926347 392
5.768136 4.3462429 3.4807582 402
5.6661668 4.4980178 3.492871 434
5.4607663 4.6265111 3.4670081 222
5.364696 4.6887431 3.4568768 378
5.5938926 4.6505022 3.5169408 406
5.381289 4.9721174 3.5552924 574
5.4341922 4.3153281 3.6852944 382
5.5950518 4.4880495 3.6373451 424
5.3919778 4.5341845 3.7456279 394
5.4537382 4.5589352 3.6666131 404
5.6690483 4.5059185 3.6686075 408
5.3803377 4.7318935 3.6466751 361
5.3089895 4.9072027 3.6844575 166
5.4540586 4.3387566 3.8544741 401
5.3286424 4.4631643 3.8522141 392
5.5560999 4.4401851 3.7718315 406
5.2316208 4.582459 3.8608315 280
5.0831208 4.6981602 3.8518639 286
5.1381602 4.7384429 3.8867297 366
5.3185763 4.6570864 3.7635498 392
5.2227097 4.8328581 3.794857 315
5.1413646 5.0157318 3.8364215 308
5.0336437 5.1253223 3.8438249 298
5.4343214 4.3180847 3.9851112 394
4.9889174 4.3696356 3.9636183 568
5.1282983 4.4927301 3.9330075 356
4.921555 4.5519671 4.012466 266
4.9844508 4.5799594 3.958282 308
5.2780352 4.6133866 4.0365014 438
5.304235 4.6528754 3.9134684 208
5.0439143 4.9107366 3.9213562 252
4.9321494 5.0524554 3.9406259 306
5.4479847 4.3254743 4.1306477 425
4.9789515 4.3664455 4.0809865 370
5.2985153 4.4073877 4.1436205 417.33334
5.0318151 4.5898795 4.1965466 374
5.1872959 4.5151348 4.100121 334
4.875567 4.6911225 4.1793327 386
4.9796028 4.8547449 4.1619272 354
4.8738503 4.9711375 4.1737094 206
5.3371153 4.2607355 4.2433414 356
5.0929904 4.4787445 4.288085 350
5.3178043 4.4436884 4.2517853 354
5.28373 4.589067 4.2974772 444
5.0172868 4.6586366 4.3355861 278
5.2209387 4.2934132 4.411705 363
5.194747 4.4074221 4.4496937 354
5.3504691 4.4791532 4.3969898 408
5.0323653 4.5623312 4.4031577 486
5.1483388 4.5371242 4.4411411 370
5.2644343 4.5572615 4.3934979 518
5.4694815 4.5291486 4.4688873 408
5.1799626 4.2280626 4.5469222 282
4.9460573 4.3985138 4.6108208 310
5.0132203 4.4658594 4.5484114 359
5.1139612 4.3693929 4.5802569 364
4.8739271 4.5985813 4.627882 296
5.0260944 4.6154017 4.5538836 397
5.2769823 4.5549307 4.5042868 402
4.7328529 4.7180781 4.5790873 282
4.8742466 4.7136965 4.535696 350
5.1492772 4.3582234 4.686512 332
5.3175511 4.4723787 4.6572104 392
5.5144124 0.70953238 0.10199423 354
5.6492796 0.73609936 0.056435168 265
5.1056023 0.89566362 0.049892515 309
5.6606579 0.75875688 0.016505808 289
5.1790929 0.91469854 0.11732899 231
5.5298367 0.72210658 0.22863123 352
5.3563776 0.83508718 0.27638942 354
5.1692939 0.91823745 0.19531992 342
5.2793622 0.9465915 0.23466873 310.5
5.4831514 0.71502686 0.36950573 368
5.3372293 0.83743292 0.36975607 346
5.5320287 0.59086961 0.57787645 261
5.4734783 0.71296847 0.52330196 320.25
5.3762736 0.85211915 0.52177578 397
5.4494367 0.81458396 0.57669389 318
5.3876553 0.97841835 0.52347559 334
5.4578023 0.95536584 0.57886589 340
5.4852648 0.5502845 0.6864934 237
5.4518442 0.7091217 0.68626106 278
5.6414623 0.60898221 0.69702238 275
5.3913426 0.79882008 0.68372273 307
5.4107385 0.86607796 0.68599677 303
5.4639211 0.94961184 0.69073975 374
5.5112276 0.59987581 0.8046478 299
5.3079038 0.71992242 0.78921109 2811
5.4732924 0.67985237 0.8025912 297
5.3292475 0.82000613 0.79284799 1232
5.6055708 0.96842599 0.81912947 279
5.4184275 0.5975433 0.9759376 309
5.3571663 0.65819782 0.90956748 927
5.4314537 0.71767616 1.0003774 303
5.3354874 0.77362978 0.97047377 1116
5.4074173 0.8790307 0.9810968 304
5.5157647 0.94513685 0.93285227 299
5.5817871 1.035033 0.94224858 299
5.3334961 0.6906032 1.1510465 1346
5.4378815 0.60808766 1.1651816 309
5.3258963 0.81756473 1.1534686 1306
5.505939 0.9637689 1.1002123 294.33334
5.4355268 0.64859325 1.2941082 291
5.3179598 0.82214391 1.27853 790
5.4974504 0.76909971 1.3087218 299
5.5082493 0.62748885 1.4393911 378
5.3917065 0.7589255 1.4198251 364
5.4837413 0.77252907 1.4390482 285
5.5022364 0.76849943 1.5776621 257
