# .PCD v0.7 - Point Cloud Data file format
VERSION 0.7
FIELDS x y z intensity
SIZE 4 4 4 4
TYPE F F F F
COUNT 1 1 1 1
WIDTH 1
HEIGHT 210
VIEWPOINT 0 0 0 1 0 0 0
POINTS 210
DATA ascii
0.42477816 -3.0192113 0.13235955 398
0.49700245 -3.0488548 0.10321903 384
0.66227293 -3.0226474 0.11558409 264.66669
0.55381382 -2.9831977 0.10614931 347
0.73005855 -2.986017 0.096288279 278
0.81367552 -2.9421937 0.11435351 276.33334
0.92192316 -2.8656445 0.1087701 283
0.85063905 -2.8390317 0.10204381 276
0.97498107 -2.8245244 0.11066272 279.33334
1.0802777 -2.7987542 0.10647833 280.5
1.089259 -2.6720169 0.14913861 314
0.44106245 -3.0667262 0.22149341 357.66669
0.52659088 -3.0453022 0.22879416 351.22223
0.66244125 -3.0334535 0.23240381 269.44446
0.78811401 -3.0067203 0.22497849 278.33334
0.54796207 -2.9835327 0.17491595 344.33334
0.70071548 -2.980006 0.22399811 271.39999
0.81875777 -2.9303894 0.23557727 283.5
0.94535244 -2.8743298 0.2203072 281
0.8763001 -2.8387713 0.25092399 275
0.99094033 -2.8172612 0.23533016 277.44446
1.074367 -2.8069992 0.23684974 289.60001
1.0802108 -2.6725452 0.22154111 321.57144
0.37847283 -3.1646218 0.40737304 267
0.36802858 -3.0917897 0.33031574 301.5
0.48967513 -3.0498037 0.35603032 317.70001
0.64661884 -3.0340161 0.38191968 273.28574
0.53521264 -2.9832337 0.34816208 182
0.68760371 -2.9913402 0.39539239 273
0.81695914 -2.9313166 0.39024556 291.42859
0.9314661 -2.8758848 0.35115266 291
0.8951748 -2.844851 0.41132551 294
0.99055624 -2.8083715 0.38974518 302
1.0758641 -2.7911456 0.37956801 276.14288
1.0925308 -2.6648643 0.37696916 348.66669
0.38360187 -3.1508873 0.46414647 271
0.34754169 -3.1113002 0.55544126 304.75
0.51451194 -3.0531528 0.51656216 343.11111
0.64067936 -3.0298827 0.51797056 270.11111
0.77581811 -3.0070095 0.56746614 283
0.70445573 -2.9937921 0.56805098 281
0.83314878 -2.9244583 0.52642727 288.11111
0.89817691 -2.8224351 0.49240083 291
0.986615 -2.8165219 0.52400106 298.14288
1.0911567 -2.7335443 0.51272124 282
1.0248185 -2.6816638 0.48209703 206
1.1004336 -2.6572545 0.47941199 252
0.46507135 -3.1553988 0.65394258 261
0.3586421 -3.0941668 0.68504822 309.25
0.53269047 -3.0989025 0.6878984 265
0.64659953 -3.0263848 0.67048389 269.5
0.66937762 -2.9841983 0.66540337 283
0.82946444 -2.9282622 0.6566208 287.20001
0.98152268 -2.8198104 0.67640489 308.25
1.1026793 -2.7341385 0.68263066 282
1.1173311 -2.6594648 0.65682352 366
0.32689381 -3.053931 0.82250518 320
0.51893103 -3.0805514 0.82653922 287.14288
0.64408207 -3.026366 0.81066179 290.5
0.67925346 -2.9709153 0.8014437 301
0.83842129 -2.9113266 0.81552035 293.61539
0.97084785 -2.8563437 0.88871419 271
0.98300928 -2.8039126 0.83234096 286
1.0837467 -2.7300339 0.8324706 272
0.96795702 -2.645246 0.84949028 360
1.1046088 -2.6593432 0.8318994 322.66669
0.33944631 -3.0737286 0.97438771 327.5
0.52108961 -3.0771527 0.9710694 290
0.62837207 -3.0383165 0.9492833 291.66669
0.69396198 -2.9476249 0.96764672 308
0.81896186 -2.9143381 0.97271138 306
0.85464144 -2.8390043 1.0060289 307
0.97745323 -2.8010716 0.98715007 322.5
1.0825305 -2.7306218 0.98631132 271
1.1345556 -2.6338215 0.95477098 363
0.51167369 -3.0620658 1.1191328 298.14288
0.60861331 -3.0507686 1.1206419 300
0.59385073 -2.9971654 1.1462687 307
0.68662602 -2.9294021 1.127841 312.71429
0.81219846 -2.9129465 1.1244229 310.20001
0.90199089 -2.8533804 1.1869035 311
0.83656478 -2.8250442 1.1395351 312.5
0.99258 -2.7862465 1.1329345 313
1.0828557 -2.7403035 1.1240681 277
1.1073513 -2.6419032 1.0986544 365.5
0.44468433 -3.0348418 1.2383186 364
0.49359122 -3.0672879 1.2937689 298.71429
0.61956137 -3.036175 1.2771354 307
0.59173667 -2.9889297 1.2629579 307
0.68964535 -2.9249039 1.2627673 314
0.78056717 -2.9273796 1.2580609 306.33334
0.91287959 -2.861083 1.305867 315
0.83212948 -2.8106291 1.286886 318.5
0.98892522 -2.7791033 1.2825297 319
1.0719389 -2.707927 1.2262847 251
1.0127963 -2.6838467 1.2896496 328
1.1007228 -2.6368828 1.2672144 379.5
0.36262283 -3.0426445 1.4856659 212
0.50444496 -3.0642319 1.4547833 294.33334
0.63064349 -3.022758 1.4350059 309
0.59050834 -2.9884684 1.38248 311
0.67795777 -2.9599342 1.4126956 297.5
0.78430891 -2.9126298 1.3978914 307
0.92281353 -2.8643172 1.4242002 305
0.8342942 -2.8292489 1.4463931 309
1.0007828 -2.7871945 1.4309696 300.20001
1.1920165 -2.7078834 1.3848996 293
1.0180316 -2.6607928 1.428758 321
1.0954449 -2.6479819 1.4296408 353.20001
0.39894748 -3.0577579 1.5721319 293
0.52752 -3.0415378 1.5959824 286.20001
0.6456098 -3.0418308 1.6046393 296
0.5896951 -2.9955194 1.5452992 287
0.68268716 -2.9554644 1.5696604 295.5
0.80415714 -2.9023988 1.5703486 299.25
0.93250585 -2.8797164 1.5087043 301
0.87355483 -2.8285806 1.562167 309
0.97998935 -2.8135941 1.5921806 308.60001
1.0083475 -2.6556478 1.5698018 338.75
1.1123939 -2.6688197 1.585012 317
0.36403739 -3.1701558 1.784793 271
0.4105888 -3.0869358 1.6977242 296
0.5360626 -3.0426514 1.7239528 285.5
0.65686429 -3.0313427 1.7594767 287
0.52158296 -2.9232783 1.7459614 178
0.68681777 -2.9481936 1.7216243 294
0.79997045 -2.9062934 1.706199 296
0.9413588 -2.8650558 1.6573381 305
0.69300425 -2.7895255 1.7552472 354
0.84748775 -2.8253434 1.7621368 325.25
0.97491807 -2.8042185 1.737579 289.85715
1.1367977 -2.727288 1.6854873 267
1.0023054 -2.6623354 1.7518158 294.80002
1.1302004 -2.6882503 1.737224 324
0.50500023 -3.174705 1.9458519 428
0.41162214 -3.0879838 1.8897333 286.66669
0.70167065 -3.0393643 1.9170136 410
0.76098835 -3.0252614 1.9492414 285
0.38251027 -2.9656334 1.9144357 359.5
0.54351544 -2.9263115 1.9058489 317.80002
0.67087245 -2.8806686 1.9111208 327.39999
0.82494259 -2.9053721 1.8664353 283
0.95902836 -2.8637409 1.8775313 174
0.3507559 -2.8454297 1.9182823 196
0.67280483 -2.7927365 1.9214518 347.5
0.81395793 -2.7709806 1.9208257 325.28574
0.95802486 -2.7495942 1.9019462 308.57144
0.66243875 -2.6528955 1.9005835 227
0.82056308 -2.5782406 1.9199288 287
0.96265978 -2.6495726 1.9051852 309
1.0613816 -2.6829441 1.8905324 304
0.97824734 -2.4843686 1.9060526 296
0.59580612 -3.1861796 1.9517711 259
0.35888982 -3.0926375 1.9820832 309
0.42737347 -2.9567375 1.978034 308.5
0.52733606 -2.9098737 1.9775919 301.39999
0.73979646 -2.9092212 2.0216064 297
0.88450623 -2.9033632 1.9615188 275
0.71152449 -2.8016608 1.9593085 323
0.79978514 -2.7375178 1.9860052 297.66669
0.92099464 -2.713937 1.9818825 319
1.0833722 -2.7296736 2.0085907 285
0.99497831 -2.6850703 1.9727151 333
4.8235712 -3.6332116 0.034516796 285
4.721838 -3.5764577 0.12347189 302
4.8104701 -3.5934641 0.11940587 302
4.5093684 -3.2105355 0.097569108 337.5
4.3642778 -3.1145647 0.0025629401 120
4.7444773 -3.5654469 0.21153441 309
4.6899939 -3.3603268 0.21298224 266
4.5735154 -3.2441995 0.21655312 282
4.6599932 -3.7005725 0.41545793 276
4.7276258 -3.5479984 0.35965115 314.5
4.8415451 -3.4871092 0.40958202 284
4.7422409 -3.3781681 0.35623783 280
4.6203518 -3.2692432 0.30695757 290
4.6250329 -3.6593659 0.52380562 294
4.7127218 -3.4851329 0.518466 310.66669
4.7071462 -3.3131466 0.51247078 274
4.5995955 -3.826781 0.64689922 364
4.7635384 -3.8053994 0.64976716 261
4.6242447 -3.6468222 0.63846111 279
4.6796761 -3.5024686 0.63285255 275
4.5763116 -3.3940759 0.74107456 1339
4.7541809 -3.3783047 0.68856955 323.5
4.835402 -3.3977516 0.63212341 277
4.5993443 -3.801275 0.8944732 295
4.6630592 -3.8700964 0.77459931 275
4.6187387 -3.6181974 0.88126278 275
4.6703167 -3.7342222 0.82984853 265.5
4.576272 -3.5948 0.7534951 411
4.7068844 -3.477695 0.83462161 293
4.814631 -3.4825993 0.75673127 279
4.5646496 -3.436007 0.86421657 1841
4.8651075 -3.3971362 0.87969625 281
4.5803847 -3.7718778 1.0221678 305
4.6255541 -3.6576831 1.0148814 308
4.6705885 -3.485292 1.0027014 301
4.7344809 -3.3596911 0.99676585 308
4.486526 -3.677213 1.1383604 2193
4.5420856 -3.6373272 1.1391093 1457
4.5866737 -3.5144939 1.1301714 1299
4.5840855 -3.365998 1.1144274 2401
4.717958 -3.423012 1.1332922 297
4.8270211 -3.3461146 1.1363442 283
4.6801429 -3.6321282 1.2893543 299
4.6859088 -3.5472403 1.2797509 295
4.6896572 -3.6274433 1.4312251 279
4.6742287 -3.5423965 1.4175699 290
4.8032947 -3.5127857 1.4309578 392
