# .PCD v0.7 - Point Cloud Data file format
VERSION 0.7
FIELDS x y z intensity
SIZE 4 4 4 4
TYPE F F F F
COUNT 1 1 1 1
WIDTH 1
HEIGHT 107
VIEWPOINT 0 0 0 1 0 0 0
POINTS 107
DATA ascii
1.8245909 -3.3701849 0.14704645 249
-0.0075291693 -5.7889719 3.1395173 576
-0.31841674 -5.8874354 3.2106032 366
-0.20891201 -5.8539205 3.1852674 402
-0.16438207 -5.8219557 3.1664639 352
-0.0075233877 -5.7517614 3.2667181 442
-0.63341653 -5.6852174 3.2925105 378
-0.44122854 -5.6069231 3.2314761 436
-0.18006185 -5.6411257 3.2239442 486
-0.49318376 -5.7766447 3.3219705 356
-0.33839327 -5.7610226 3.368294 379
-0.62269592 -5.6904635 3.4346187 384
-0.44817236 -5.6461358 3.39082 370
-0.15743196 -5.679069 3.3799963 666
-0.2009992 -6.0553012 3.5820098 454
-0.33029583 -5.9668703 3.5471427 458
-0.47232422 -5.7498441 3.5160527 379
-0.30717608 -5.7158241 3.5479438 408
-0.16718256 -5.773468 3.566627 385
-0.5972935 -5.5999646 3.5176899 352
-0.57161117 -5.5037069 3.5864334 368
-0.42826113 -5.4946728 3.5633767 357
-0.24341647 -5.5381789 3.5684631 392
-0.13710853 -5.5100689 3.5422661 368
0.0013355315 -5.4422708 3.4922295 382
-0.27441522 -5.3451481 3.5742452 382
-0.13951084 -5.3530378 3.5655642 392
0.0063234866 -5.2929082 3.5176289 396
-0.47278759 -5.8223734 3.6241524 366
-0.32612094 -5.8094478 3.6012783 388
-0.28601357 -5.6287146 3.7434702 362
-0.13658151 -5.6471162 3.7399223 478
-0.55112088 -5.4378185 3.6624444 344
-0.42991686 -5.5390854 3.7066689 397
0.0038031936 -5.290833 3.6209791 430
-0.087852329 -5.2331777 3.6871967 414
0.00305897 -5.2473388 3.6883829 420
-0.45438716 -5.6169882 3.8676121 380
-0.41487381 -5.595324 3.8495028 358
-0.27244338 -5.5959711 3.8336558 348
-0.54011631 -5.4321127 3.7662683 318
-0.41772527 -5.4986944 3.89042 380
-0.18962091 -5.5224452 3.8464246 505.33334
0.00015160441 -5.1726432 3.7991555 424
-0.13679478 -5.7981935 3.9443045 404
-0.54851711 -5.5556641 3.943538 380
-0.31228867 -5.6407671 4.0129457 401
-0.21063007 -5.6028976 4.0241709 358
-0.1066103 -5.6498928 4.0443196 418
-0.014215738 -5.5204525 3.9524198 520
-0.49082506 -5.5861025 4.1210175 362
-0.34232634 -5.569829 4.1312432 380
-0.20150763 -5.5793233 4.1213365 376
-0.085766941 -5.6089349 4.1637306 228
-0.46309778 -5.5339217 4.2120233 334
2.5700336 4.1929836 0.13998911 370
2.7057009 4.1965361 0.13344765 216
2.3115044 4.2198057 0.063861564 364
2.451355 4.2336488 0.14457631 352
2.6186519 4.1678152 0.20721026 350
2.3126142 4.2384658 0.1849364 350
2.4382563 4.2364302 0.25064999 331
2.5771508 4.2285776 0.28308028 263
2.7103784 4.2184529 0.27868429 264
2.6992977 4.1665239 0.44781017 336
2.78865 4.1743722 0.3878755 279.33334
2.4426601 4.2363133 0.36789733 330
2.5824955 4.2301536 0.36429796 336
2.7776396 4.1671014 0.54005671 349
2.4532773 4.2302475 0.49961376 344
2.5894871 4.2172422 0.49748117 335
2.7597208 4.3222985 0.54770899 318
2.4965072 4.3557992 0.55123109 164
2.6512945 4.3748441 0.55100095 186
2.8111479 4.4056048 0.45384312 304
2.5998044 4.1921625 0.74131632 362
2.7745407 4.157505 0.68950248 359
2.9139953 4.1571035 0.69138265 365
2.467535 4.2643738 0.69508862 317
2.589869 4.2440004 0.67726743 286
2.7351866 4.2877989 0.69873017 270
2.3775477 4.4109001 0.6543107 265
2.7607622 4.1411657 0.84596449 307
2.4943037 4.3053594 0.85676074 265
2.6043248 4.2431846 0.85260028 323.5
2.7129824 4.2566977 0.85667408 265
2.3590279 4.3804121 0.80905503 265
2.8565962 4.1182332 0.95784771 299
2.5456483 4.3232365 0.97183144 289
2.6363611 4.293787 0.97115964 274
2.7612824 4.265018 0.97209275 283
2.4298263 4.5367899 0.99578953 287
2.5595076 4.5011668 0.99492812 263
2.7796545 4.1915765 1.1383578 298
2.8848753 4.1378765 1.1366 294
2.5486569 4.3094792 1.0855335 291
2.6669631 4.248415 1.1408854 299
2.7715995 4.3681889 1.1043371 283
2.7312965 4.54845 1.1287962 261
2.5627716 4.3165507 1.2055889 289
2.6202068 4.4045124 1.3475373 376
2.7304626 4.313189 1.463753 256
2.9262118 4.2719698 1.472507 320
3.0177805 4.3214979 1.3613166 402
2.6266513 4.3963609 1.4729311 258
2.7576153 4.3801241 1.3523875 289
2.9253063 4.4067535 1.369753 283
