# .PCD v0.7 - Point Cloud Data file format
VERSION 0.7
FIELDS x y z intensity
SIZE 4 4 4 4
TYPE F F F F
COUNT 1 1 1 1
WIDTH 1
HEIGHT 149
VIEWPOINT 0 0 0 1 0 0 0
POINTS 149
DATA ascii
-0.3795251 5.3887825 0.090202272 434
1.7728744 0.056720018 0.19101202 668.75
1.9146811 0.11404417 0.21512972 312.375
1.9689611 0.14403352 0.24104774 278.33334
2.4378004 0.11382858 0.24824701 281
1.8972368 0.1792582 0.19551957 469.45456
2.0387692 0.22864881 0.24022244 294.07693
2.1750438 0.21810393 0.27972528 306.33334
2.3720839 0.17333494 0.25168628 289
2.0261538 0.11503524 0.36340508 306.66669
2.3743539 0.10918806 0.3907274 291
2.4093101 0.069965944 0.39834952 249
2.0581112 0.18341383 0.3804267 294.33334
2.1672649 0.23526213 0.38185108 286.45456
2.3466349 0.19455108 0.37781486 279
2.4077923 0.16337655 0.44202471 287
2.3145468 0.37162513 0.44012979 283
2.2227426 -0.081909947 0.56270659 355
2.1761708 0.10511392 0.53034472 306.33334
2.3204012 0.082875371 0.52663589 294
2.4329762 0.050917931 0.48843679 265
2.0510795 0.16131744 0.52517986 315.5
2.1920304 0.23285052 0.52154219 298.45456
2.3337851 0.17129989 0.51745379 296
2.2809901 0.36021894 0.52712119 295.66669
2.1870196 -0.046057835 0.6737541 415
2.3188114 -0.08248277 0.65821201 310.25
2.4443538 -0.074037522 0.74398643 271
2.0600348 0.10301623 0.68395352 730.20001
2.162128 0.076376483 0.66789138 508.46671
2.3053405 0.068747573 0.61967492 299
2.0680981 0.19521904 0.69510949 619.5
2.1585488 0.2416531 0.65851909 416.14288
2.2244623 0.33638 0.66214323 330.33334
2.2526717 0.34987652 0.61750829 279
2.3561378 0.4622792 0.68600059 313
2.1663663 -0.053582788 0.83876246 746.40002
2.280216 -0.078526795 0.81656808 320.5
2.4389734 -0.076275915 0.79765093 261
2.0472956 0.090531707 0.80869597 2645.5
2.1667154 0.043898985 0.81393087 1089.3334
2.0445192 0.18805869 0.805713 2350.2727
2.1534767 0.26144451 0.84064662 525
2.2096667 0.36145222 0.8846308 544
2.3237998 0.39383778 0.81811583 358.33334
2.4690313 0.44316101 0.75775045 293.5
2.2342734 -0.19415984 0.96164954 259
2.1804478 -0.065155543 0.97491443 608.33337
2.3035707 -0.071931943 0.99664199 361
2.0662787 0.093968473 0.94476217 628.60004
2.1619289 0.068227261 0.98193043 565.28577
2.0660703 0.18033852 0.96149647 622.55554
2.1358624 0.25153586 0.99468726 549.75
2.2727644 0.29870048 0.92509794 418
2.1717029 0.3435894 0.98937541 472.60001
2.3802202 0.42869112 0.90621185 277
2.0953875 -0.032655701 1.1493393 2093
2.1647475 -0.083135962 1.1183064 1019.8
2.2971058 -0.096327007 1.1364676 320.5
2.0603669 0.069407746 1.1345335 1851
2.178359 0.073888525 1.1196616 634.07697
2.0530698 0.21372548 1.1210554 1215.5
2.1337821 0.2266905 1.1201847 473.25
2.1444547 0.30346975 1.1348891 449
2.210933 -0.087588705 1.2007343 334
2.2633266 -0.045601882 1.2471091 278
2.1780095 0.075974971 1.2803967 317.5
2.2959132 0.037486397 1.3184726 294.66669
2.158273 0.21160634 1.2643533 354
2.2122109 0.30938405 1.2599382 307
2.1986861 0.057156838 1.4173692 332.57144
2.2837703 0.037805822 1.4265316 306
2.2399483 0.15523151 1.3957449 318.5
2.3150506 0.16204207 1.4421244 288.60001
2.3249323 -0.001216509 1.5186518 283
2.221807 0.065170094 1.5230898 276.33334
2.2791007 0.075188138 1.5437155 290
2.3123043 0.15604497 1.5502163 273
3.2352693 -0.97180331 0.066329338 310.89999
3.4178429 -0.95908821 0.074255481 319
3.4609418 -0.9134506 0.087894008 317
3.1312141 -0.77481544 0.0709427 299
3.1804132 -0.84457755 0.096497327 249.75
3.1299372 -0.68015814 0.11664289 251
3.3512101 -1.06972 0.22795975 311
3.2049899 -0.95157194 0.19935185 322.5
3.4203176 -0.99166238 0.20052397 310
3.4646049 -0.93091625 0.24932539 309
3.2034121 -0.81814694 0.20511891 275.71429
3.5519905 -0.86639822 0.24651381 298
3.1020174 -0.66597033 0.19443074 310
3.1658602 -0.74508315 0.1905977 258
3.3836076 -1.2574791 0.4341116 332
3.352078 -1.0531113 0.42947054 301
3.4046116 -0.9695766 0.34709281 339.83334
3.4822268 -0.96361965 0.38820189 314
3.2796316 -0.78257239 0.30759662 285
3.5829065 -0.8649798 0.36538994 414
3.6101637 -0.8756336 0.43177974 303
3.3632464 -1.1198962 0.56719911 311.5
3.4918432 -1.1339829 0.50287461 247
3.3867443 -0.98767734 0.53484601 337.85715
3.4543893 -0.96799743 0.49746996 322
3.4357815 -0.84982985 0.56355852 339.66669
3.5234601 -0.84836078 0.49769229 307
3.2115991 -1.1281822 0.67581654 359.33334
3.3510127 -1.1330972 0.67739606 317
3.2319908 -0.97860712 0.69484615 364
3.3419285 -0.98567557 0.65091801 349.5
3.2679803 -0.84342778 0.65718222 364.5
3.3786981 -0.83422607 0.66727829 371
3.5642879 -0.73860025 0.68123591 300.5
3.2398632 -1.1092733 0.80922663 330.85715
3.3365598 -1.1747795 0.87127733 303
3.242584 -0.98094267 0.80753368 376
3.3342857 -0.94373405 0.81786168 348
3.2339728 -0.83993506 0.79887229 365
3.3890438 -0.82772076 0.81976444 343
3.4449167 -0.70518541 0.7831018 369
3.4523625 -0.70240182 0.86244678 385
3.1969953 -1.084709 0.96145606 379.66669
3.2344995 -0.97677362 0.94667262 406.33334
3.3262873 -0.95660114 0.98895472 406.33334
3.2520247 -0.85077274 0.95485437 392
3.4122303 -0.82474375 0.98296708 373
3.440589 -0.6931628 0.98104918 373
3.1461143 -1.1157839 1.1123488 351
3.2123466 -1.0536608 1.1616887 399
3.2065821 -1.004706 1.10974 386.14288
3.3466167 -0.92873168 1.1414295 397
3.2468963 -0.85514432 1.1122451 371.5
3.421829 -0.81805849 1.1506503 372.5
3.4674785 -0.69012415 1.1530983 397
3.1821866 -1.0878131 1.2389979 354
3.2253697 -0.97553748 1.2549309 377.80002
3.3804202 -0.9405821 1.3183696 317
3.2841446 -0.8236258 1.2402663 351
3.3984861 -0.85251737 1.3154974 322
3.4326274 -1.2082499 1.4951621 310
3.2870998 -1.0944451 1.3511703 313
3.3566222 -1.1225929 1.4602425 382
3.5370257 -1.1069512 1.4252405 322
3.3699169 -0.99390388 1.4489245 305
3.4184022 -0.86646503 1.4507804 319
3.4674742 -1.1659333 1.5892103 275
3.3720679 -0.99593681 1.5347704 332
3.4773304 -1.0256028 1.5743607 283
3.3776462 -0.85827601 1.5208106 300
3.475244 -1.0771923 1.6674635 271
