# .PCD v0.7 - Point Cloud Data file format
VERSION 0.7
FIELDS x y z intensity
SIZE 4 4 4 4
TYPE F F F F
COUNT 1 1 1 1
WIDTH 1
HEIGHT 114
VIEWPOINT 0 0 0 1 0 0 0
POINTS 114
DATA ascii
5.9396915 7.702065 5.1615729 358
3.7377861 -1.2516214 0.0034261048 323
3.785759 -1.2505521 0.071577623 339.80002
3.7403367 -1.0600982 0.069579422 364.5
3.7656369 -1.0678766 0.062014803 301
3.6799784 -0.93646145 0.032465845 245
3.7727611 -0.99726588 0.096336335 312
3.8382738 -0.79945827 0.038249791 354
3.9382064 -0.80340958 0.10545023 323.33334
3.8412576 -0.74149841 0.059941024 330.5
3.7400799 -1.2703948 0.21209863 408
3.7531798 -1.2813368 0.24043098 410
3.7352853 -1.0702363 0.21265689 410
3.7352805 -0.96526891 0.18481022 305
3.7796712 -0.98147047 0.23936924 396
3.9736695 -1.0427148 0.2982195 400
3.9889019 -0.8129136 0.22193122 371.39999
3.9857624 -0.7496354 0.29670918 268
3.7219419 -1.2617391 0.35422531 375
3.7646542 -1.2907462 0.40622717 406
3.7183096 -1.0706121 0.30233553 390
3.7824852 -1.147177 0.3834841 404
3.8580158 -1.0077889 0.34521329 390
3.9236362 -1.0258268 0.44046414 291.5
3.9528427 -0.85134953 0.4023056 393
3.7241774 -1.2716779 0.54109663 352.33334
3.764327 -1.2581254 0.59511733 265
3.6997254 -1.0757012 0.50954479 372
3.7875738 -1.1486323 0.56686729 301.33334
3.8426282 -1.0020742 0.55239838 352.5
3.8312781 -0.83260339 0.58726621 394
3.9714348 -0.86151183 0.51611674 249
3.730197 -1.391325 0.67983317 239
3.8183858 -1.3824629 0.68627656 257
3.6326394 -1.2291709 0.70624852 365.5
3.6712461 -1.1001279 0.70382726 347
3.7773101 -1.1072243 0.67201507 257
3.9039121 -1.1094422 0.68229175 277
3.7373953 -0.94866252 0.70452905 349
3.800534 -1.0095546 0.67050791 394
3.7461867 -0.819879 0.74188495 333
3.8342562 -0.83698732 0.66804612 257
3.6747346 -1.3741226 0.80169135 304
3.5643144 -1.2352662 0.82340324 3243
3.7962322 -1.2287308 0.76346684 302
3.6737378 -1.1095136 0.81292361 1633.4
3.8107767 -1.0756614 0.75814497 313
3.6946063 -0.92944807 0.82391906 2613
3.8087008 -1.0172496 0.79870361 315
3.7076361 -0.81428951 0.82083726 1941
3.6296716 -1.362536 0.97090149 249
3.6294889 -1.2646527 0.96379364 356
3.6915689 -1.1364243 0.96495879 349
3.681797 -1.0235652 0.95618242 358
3.8042319 -0.98767668 0.9740063 318.5
3.7860031 -0.83819294 0.96354967 426
3.5396774 -1.2387447 1.1685368 3291
3.616091 -1.2644812 1.0959747 365
3.5964501 -1.1603204 1.1735964 2029
3.6371198 -1.1141596 1.1178279 1369.6667
3.7504127 -1.1218932 1.1104653 335
3.6823683 -1.0075463 1.149621 1319.6667
3.7967489 -0.96812862 1.1399004 689
3.7374654 -0.83528936 1.1801921 2553
3.7806904 -0.84220445 1.0981411 341
3.7122476 -1.2510631 1.301541 309
3.725534 -1.1147287 1.2916298 313
3.8123474 -1.0894221 1.2633309 426
3.8402145 -1.0456992 1.313707 174
3.8882015 -0.8751964 1.3126396 307
3.7481415 -1.3243543 1.414547 293
3.7625241 -1.2069966 1.4055018 305
3.7417614 -1.1266326 1.4870585 321
3.7987859 -1.1417524 1.4085464 295
3.7832403 -1.0299907 1.3937968 382
3.7373571 -1.3235343 1.5085486 287
3.7619138 -1.2011758 1.5011472 214
3.8724089 -1.0506774 1.5177442 283
4.9840994 -4.8302794 0.85149419 70
5.315681 -4.3693123 0.83278406 150
4.9341063 -4.7849808 0.99377286 60
5.0462284 -4.6622248 0.98900306 168
5.1022091 -4.592917 0.98614264 152
5.2238045 -4.3590288 0.97375917 160
5.2986207 -4.3400564 0.97647381 158
4.9932981 -4.8515143 1.1574824 206
5.0722704 -4.6934109 1.1467037 162
5.1350861 -4.6084986 1.1425794 200
5.2173347 -4.358973 1.1243064 214
5.300612 -4.3271575 1.127437 168
4.9940906 -4.8579464 1.3181715 268
5.0839739 -4.7104497 1.3081878 242
5.2204471 -4.6733389 1.3155849 289
5.3083792 -4.3812885 1.2906601 312
5.0029769 -4.8725767 1.4847683 396
5.1137743 -4.7451129 1.4785538 299
5.2040734 -4.6418595 1.4741654 285
5.3080463 -4.4499345 1.4604691 285
5.4013405 -4.3837843 1.4623759 273
5.1100011 -4.7467909 1.6461374 283
5.1588221 -4.5833373 1.6275454 238
5.3215251 -4.4672012 1.6309004 285
5.3788304 -4.3495135 1.6215436 279
5.0107579 -4.8859558 1.6558623 408
5.1377568 -4.5476723 1.7880009 334
5.2341409 -4.3950677 1.7769578 234
5.3165541 -4.2816052 1.7710958 80
4.9860525 -4.865685 1.8211616 368
5.0538931 -4.709362 1.803442 280
5.1735764 -4.3464456 1.928273 264
4.9666314 -4.8507214 1.9891653 182
5.024128 -4.6759367 1.9646844 106
5.1485143 -4.541841 1.9594179 148
5.3568649 -4.3008738 1.950778 230
