# .PCD v0.7 - Point Cloud Data file format
VERSION 0.7
FIELDS x y z intensity
SIZE 4 4 4 4
TYPE F F F F
COUNT 1 1 1 1
WIDTH 1
HEIGHT 75
VIEWPOINT 0 0 0 1 0 0 0
POINTS 75
DATA ascii
1.274869 -4.0691671 0.10028706 406.66669
-0.040769458 1.1885173 0.28040683 592.75
0.0084128827 1.1748664 0.26019678 634
-0.05498391 1.2548162 0.27104476 438.11111
0.013592467 1.2429594 0.27668732 359.80002
-0.22593105 1.4633235 0.2725248 394
-0.24754098 1.5220926 0.25596794 383.5
-0.079826117 1.1973367 0.33651948 589
-0.18104675 1.2923574 0.38990399 408
-0.075833671 1.2384079 0.37640426 496.90479
0.013714066 1.2433424 0.35844335 503.75
-0.23612125 1.4547466 0.34995744 400.875
-0.053565037 1.3832314 0.35179344 270.60001
-0.2258707 1.5236243 0.30214357 395
-0.10186896 1.1982678 0.486058 637
-0.17767453 1.2453758 0.52563906 495.39999
-0.093226478 1.238346 0.51270229 569.51849
-0.073254883 1.4050329 0.52911532 374.5
-0.086924717 1.5294355 0.58769315 413.66669
-0.18275605 1.2529371 0.65497655 583.33337
-0.094243526 1.2845891 0.66989082 542.16669
-0.051004935 1.4172992 0.65083975 415.60001
-0.089090884 1.5683684 0.71121329 275
-0.096214406 1.302534 0.81618184 546.71429
-0.051236603 1.3726536 0.82729518 536.33331
-0.089331135 1.2996305 0.96501487 552.23077
-0.055923492 1.3909196 0.96611565 512.40002
-0.041283071 1.5885364 1.0283499 367.20001
0.035128772 1.5364536 1.0372223 411
-0.090116277 1.3274059 1.1216739 388.66669
-0.06492503 1.403455 1.1212964 397.42859
0.068945445 1.462906 1.1426303 417.77777
-0.015860325 1.5679255 1.105515 348
0.054888964 1.5517068 1.0939068 351.20001
-0.072325796 1.3909752 1.2757494 437.5625
0.094897136 1.4754654 1.2344764 373
-0.0053723902 1.5605278 1.2551545 258
0.097255684 1.5203276 1.2528913 306
0.18547824 1.5351504 1.2370143 277
-0.080158606 1.6941729 1.2154903 258.5
-0.093310215 1.3837476 1.3594723 343
4.6471958 -3.2566662 0.050701469 380
4.6617842 -3.2734578 0.12857661 408
4.8307209 -3.2381806 0.0809616 389
4.8474369 -3.1239717 0.081443891 408
4.8250136 -2.9436057 0.084663078 410
4.6388192 -3.2620807 0.21448301 402
4.8084564 -3.2312324 0.20899852 392
4.8246417 -3.117147 0.2083233 398
4.7890644 -2.9288228 0.20921202 402
4.610014 -3.2487664 0.35596484 399
4.7907863 -3.2243011 0.30330074 400
4.8060365 -3.2406874 0.40424407 414
4.7969661 -3.1037688 0.30185658 392
4.812551 -3.1198857 0.40162861 410
4.7842197 -2.9337492 0.3491534 424
4.5977468 -3.2474442 0.50900751 418
4.8188934 -3.2552409 0.51183778 424
4.818315 -3.1291339 0.50772792 430
4.7497597 -2.9190733 0.50021672 414
4.6106663 -3.2646611 0.67745137 240
4.7722335 -3.2270262 0.62260365 414
4.8006353 -3.252454 0.7426368 243
4.7969184 -3.124548 0.73523343 241
4.8156352 -3.1324444 0.6196689 233
4.7610273 -2.9338381 0.66610432 238
4.577991 -3.2472823 0.85109246 243
4.7417226 -3.2150495 0.85903037 412
4.6490059 -3.0271859 0.84007072 420
4.5787411 -2.8216786 0.82166219 231
4.4070301 -3.1228776 0.95011914 416
4.5717549 -3.0974422 0.9612695 408
4.5875888 -2.98929 0.95363212 412
4.5350842 -2.7975247 0.93383753 398
4.4021873 -3.1235704 1.071964 426
