# .PCD v0.7 - Point Cloud Data file format
VERSION 0.7
FIELDS x y z intensity
SIZE 4 4 4 4
TYPE F F F F
COUNT 1 1 1 1
WIDTH 1
HEIGHT 79
VIEWPOINT 0 0 0 1 0 0 0
POINTS 79
DATA ascii
0.16468659 4.7825761 0.10509962 340
-0.15235549 -1.6586282 0.25854304 414
-0.1555182 -1.5114824 0.22760642 269
-0.14477038 -1.620541 0.28679571 339
-0.14063928 -1.4268229 0.26947904 328.33334
-0.13330324 -1.5599648 0.3694503 415
-0.15534782 -1.446448 0.44994307 345
-0.14304149 -1.4155881 0.35867947 397
-0.18157363 -1.5302031 0.52260804 417.66669
-0.13674577 -1.5560546 0.52335334 444.60001
-0.17193428 -1.492772 0.58864421 509
0.082196474 -1.6651744 0.71956736 319
-0.07485272 -1.5464561 0.68442762 477
0.05276189 -1.5574656 0.72250694 627
-0.16183758 -1.4537492 0.67488992 500
-0.045360148 -1.4952476 0.73132366 545
-0.014950752 -1.5214888 0.8574605 286
0.083412521 -1.5408466 0.81068003 495.14288
-0.18272407 -1.3681347 0.80373663 616.77777
-0.12788253 -1.4384048 0.8323831 467.00003
0.056564756 -1.4622878 0.8223325 639.75
-0.14900652 -1.3420894 0.89247453 647
-0.17476374 -1.7402675 1.0395145 313
-0.1087985 -1.6764163 1.0077004 343
0.13513021 -1.670517 0.93767273 271
-0.048948228 -1.6100845 0.99981672 301.25
0.055150319 -1.5746812 0.97038239 331
-0.18158275 -1.3882748 0.99257326 561
-0.13151631 -1.4192846 0.9441936 464
0.031836804 -1.4706488 0.92691082 401.5
-0.1393162 -1.3300555 0.9614023 371
-0.168944 -1.6518683 1.0526829 329
-0.047222495 -1.7303982 1.1611656 431
-0.17850344 -1.5410913 1.1650656 331
-0.064792439 -1.6027098 1.0778013 302.66669
0.016250677 -1.5492193 1.0513256 317.5
-0.18879022 -1.4377402 1.1022563 406.5
-0.13960743 -1.4958104 1.0703282 397
-0.25253376 -1.7336618 1.3302327 440
-0.243817 -1.5601264 1.3168679 305
-0.21143147 -1.4704045 1.2892036 404.5
-0.19914012 -2.2588303 1.4457656 257
-0.042576671 -2.2620599 1.4576215 267
-0.307354 -2.1647153 1.4480417 424
-0.21755217 -2.1811478 1.4536062 307.22223
-0.073970713 -2.1820846 1.4632913 376.71429
0.063649088 -2.18818 1.4667723 260.125
0.18965125 -2.1333008 1.4650215 258
-0.3356984 -2.0255513 1.4943284 320
-0.26448768 -2.0787134 1.4556506 383.5
0.2370497 -2.0520935 1.4838103 230.8
0.38291037 -1.9365331 1.4998329 318
-0.2422615 -1.6882412 1.4592726 312
-0.19748223 -1.53567 1.4014831 293
-0.18433706 -1.4524453 1.399161 318.60001
-0.21954992 -2.1477942 1.566069 270.20001
-0.062594503 -2.1483073 1.5568913 299.71429
0.055094402 -2.1808951 1.5488533 264
-0.33555034 -1.977603 1.5307066 194
-0.22543564 -2.0358584 1.5985321 316.2381
-0.07994502 -2.0378346 1.6075211 327.20001
0.076326191 -2.0318093 1.5982888 312.14288
0.23398846 -2.0076311 1.5641227 275.5238
0.32679167 -2.0045941 1.5608431 296.22223
-0.23542759 -1.9406173 1.6315516 330.66669
0.072187237 -1.9347718 1.6390809 339
0.23681034 -1.901691 1.607003 323.36365
0.36044201 -1.8753351 1.5499041 262.72729
-0.10380003 -1.6840971 1.5771022 242
0.37861842 -1.749903 1.5388896 170.33334
-0.22513613 -2.0010064 1.6889194 262
-0.079703689 -2.0242867 1.6886878 307.22223
0.091873541 -1.9796448 1.6914042 287
0.22977006 -1.9643762 1.6671832 267
-0.20451958 -1.8629087 1.6705157 305.66666
-0.085117102 -1.9214067 1.6685209 314
0.063751422 -1.9051166 1.6797512 313
0.23186994 -1.8538587 1.6505833 340
-0.21850306 -1.7589401 1.6532818 140
