# .PCD v0.7 - Point Cloud Data file format
VERSION 0.7
FIELDS x y z intensity
SIZE 4 4 4 4
TYPE F F F F
COUNT 1 1 1 1
WIDTH 1
HEIGHT 67
VIEWPOINT 0 0 0 1 0 0 0
POINTS 67
DATA ascii
4.7577152 -4.2023592 2.3166246 334
5.6995945 -2.6891363 2.877306 410
5.7937717 -2.5762317 2.8898003 382
5.7560053 -2.4343057 2.9239025 388
6.0111194 -2.4337535 2.9447854 412
6.0240951 -2.2627268 2.9203844 338
5.759717 -2.7084901 3.0561666 336
5.6112423 -2.4477768 3.0877671 415
5.8126378 -2.3548865 3.0063894 400
5.9909081 -2.2551408 3.0599728 390
6.2241793 -2.2107522 3.1471286 384
6.1856885 -2.561439 3.1942537 454
5.4959993 -2.4749429 3.182096 385
5.8457732 -2.4044974 3.1770744 474
6.0120182 -2.4451044 3.2551928 426
5.7165966 -2.3319988 3.2477474 422
6.0407715 -2.3039634 3.2402527 550
6.1932278 -2.3748209 3.1628766 412
5.8387871 -2.2140217 3.2784157 428
5.871213 -2.0615218 3.2642241 532
5.9950542 -1.9236567 3.2964725 138
5.5164924 -2.555727 3.3416452 408
5.670527 -2.4611967 3.3895793 452
5.7782331 -2.5048587 3.3117938 440
5.7594242 -2.3483074 3.4054079 423
5.748394 -2.1722589 3.3632445 353
5.9025726 -2.2312305 3.310369 418
5.6220207 -2.0308096 3.3986816 294
5.7714705 -2.0145149 3.3431239 245
5.688581 -1.8349168 3.393429 262
6.0837488 -1.8035231 3.3177624 260
5.6211019 -2.6005414 3.5277226 422
5.7044716 -2.6527746 3.5801766 444
5.7326584 -2.4968414 3.5553088 440
5.7812691 -2.3558283 3.5459347 432
5.771924 -2.1904135 3.5051589 380
5.4691205 -1.9182757 3.5173419 326
5.5725775 -1.9387043 3.4697626 273
5.6293697 -2.6082106 3.6543114 424
5.6515884 -2.4634902 3.6284871 396
5.809113 -2.3807571 3.6870799 356
5.5790658 -2.7216895 3.8757794 470
5.7168159 -2.802002 3.8646588 442
5.3971863 -2.619494 3.842416 454
5.7319646 -2.6775563 3.8379474 410
5.9607778 -2.5931704 3.8139157 588
5.7482429 -2.4778752 3.8973017 468
5.5918608 -2.30444 3.8602979 400
5.7932081 -2.3489485 3.8538203 327.33334
5.9787226 -2.7541187 3.9835868 450
5.3454189 -2.6789575 3.9108748 338
5.4700251 -2.6027942 3.989079 359
5.6618576 -2.6187975 3.9834294 460
5.732976 -2.6549096 3.9368634 409
5.9036345 -2.5877781 3.9546971 499
5.6482024 -2.4626813 3.9595325 408.66669
5.7609916 -2.3039644 3.9531038 428
5.77285 -2.2139196 3.937454 422
5.4989448 -2.9372721 4.0748048 598
5.4586258 -2.782238 4.1001244 551
5.542819 -2.6152914 4.1224942 148
5.6748962 -2.5715482 4.1278729 326
5.5344496 -2.4454229 4.0673819 360
5.7530379 -2.4537404 4.1386485 320
5.7845473 -2.3940899 4.0706186 342
5.6185732 -2.6816776 4.2718725 396
5.6087589 -2.508095 4.2131224 346
