# .PCD v0.7 - Point Cloud Data file format
VERSION 0.7
FIELDS x y z intensity
SIZE 4 4 4 4
TYPE F F F F
COUNT 1 1 1 1
WIDTH 1
HEIGHT 50
VIEWPOINT 0 0 0 1 0 0 0
POINTS 50
DATA ascii
2.460897 -3.9451632 0.092981905 277
4.9010267 -1.0729858 0.030921251 259.5
4.9841633 -1.1000873 0.1259699 287
5.3718596 -1.0725517 0.10788113 326
5.4702015 -1.0817909 0.05240529 276.66669
5.5034847 -0.96783304 0.10197166 414
5.6234655 -0.9879967 0.017770827 267
4.9401002 -1.0949227 0.20266466 348
4.9874454 -1.1111377 0.28299943 340
5.3499808 -1.0573037 0.21880206 349.33334
5.4084535 -1.0739591 0.27644986 332
5.3611259 -0.95260978 0.27670991 296
5.4004703 -0.95440102 0.18801811 326
5.0178585 -1.1234043 0.37100595 330
5.3627872 -1.0698965 0.37143025 296
5.2994223 -0.99171776 0.37068665 324
5.0652857 -1.1422629 0.51590896 372
5.2075858 -0.98779547 0.52797508 351.20001
5.2830877 -0.80124974 0.5695706 247.5
5.1530228 -1.1708312 0.67598701 285
5.20048 -0.99719667 0.67525291 332
5.254251 -0.82167429 0.67547756 356
5.0284176 -1.1507844 0.88738477 2323
5.132153 -1.1708665 0.78467017 295
5.0429521 -0.97545379 0.88348293 2719
5.127337 -0.98353899 0.77941531 863.66669
5.0818076 -0.84112841 0.7723974 80
5.2005501 -0.85534585 0.89700532 287
5.2766457 -0.83064443 0.78860092 424
5.308167 -1.3098347 0.92216623 311
5.1740041 -1.1261232 1.0203975 309
5.3161912 -1.1703708 0.97869295 292
5.2003865 -0.97307193 0.97887319 311
5.217433 -0.83880353 0.95723307 301
5.2840815 -0.84236735 1.0253116 281
5.1808276 -1.1311677 1.1428183 311.66669
5.0787206 -0.94609565 1.1198255 2853
5.1632161 -0.95673966 1.133132 317
5.2466445 -0.84124243 1.1419593 305
5.2938585 -0.85820144 1.1497606 265
5.1559196 -1.1964951 1.265946 785
5.2508268 -1.1377021 1.2796494 269
5.0692801 -1.048152 1.2434957 2299
5.1047912 -0.95026833 1.2454625 1367
5.0830617 -0.81856924 1.2364661 2319
5.2714095 -1.0973488 1.4102696 283
5.2405958 -0.98201835 1.398376 342
5.4352536 -1.0021373 1.4385797 265
5.2845502 -1.1052759 1.5444174 243
5.3440018 -1.0075901 1.5524927 275
