# .PCD v0.7 - Point Cloud Data file format
VERSION 0.7
FIELDS x y z intensity
SIZE 4 4 4 4
TYPE F F F F
COUNT 1 1 1 1
WIDTH 1
HEIGHT 183
VIEWPOINT 0 0 0 1 0 0 0
POINTS 183
DATA ascii
0.96232456 7.1890855 0.034554586 305
6.0549674 -5.7042851 0.046389759 388
6.0332961 -5.6450391 0.047875971 412
6.3377457 -5.4064789 0.036732167 434
6.3410287 -5.3575425 0.037014782 414
5.9636874 -5.5856915 0.17547335 408
5.9095058 -5.5438433 0.17715317 390
6.2241592 -5.2759886 0.16656475 431
5.8402328 -5.7629428 0.31507531 382
5.8517094 -5.7699285 0.31493559 414
5.9779305 -5.6008854 0.31004474 418
6.0919838 -5.4053397 0.44915307 424
6.2218103 -5.2772083 0.44511127 422
6.301549 -5.3244109 0.44580293 240
6.0890775 -5.1516995 0.30192608 394
6.183455 -5.2366848 0.30116469 400
6.4215021 -5.1434574 0.44071305 360
5.9672713 -5.8978596 0.46297044 408
5.8218427 -5.7255244 0.45950097 400
5.928441 -5.5676603 0.45449123 394
5.9620934 -5.3007727 0.59661365 241
6.2304635 -5.2926168 0.59840339 416
6.2189846 -5.2347097 0.59613508 434
6.2282805 -4.9659486 0.58631527 386
6.3125687 -5.0801144 0.59125495 398
5.7809272 -5.7128358 0.61182678 390
5.9283342 -5.8163748 0.6168257 432
5.9597964 -5.6063733 0.60857129 400
5.8741455 -5.4567642 0.60209405 402
6.2099881 -5.0011287 0.74481034 342
6.0041761 -5.8748555 0.78604788 436
5.9539547 -5.6081963 0.77048385 426
6.0101547 -5.5708723 0.769647 428
6.0951309 -5.4661565 0.76591229 432
5.994132 -5.2801485 0.75391781 239
6.2374377 -5.3063087 0.76084173 438
6.2217312 -5.220089 0.7560792 412
6.3511796 -5.0518951 0.75083184 404
5.9400172 -5.7897015 0.9517777 446
6.0349412 -5.6357193 0.94444191 429
6.0641766 -5.4443555 0.93249524 410
6.1032138 -5.3630171 0.92852712 428
6.2803092 -5.2541223 0.92827308 430
6.1388769 -5.2258058 0.92086005 408
6.3940411 -5.163342 0.92704511 430
6.4882445 -5.1487737 0.93000162 414
5.9309444 -5.8909369 1.1385666 430
5.9294882 -5.759409 1.1271412 456
6.0433121 -5.7109852 1.1287681 446
5.97751 -5.5023036 1.1078172 424
6.0797286 -5.4660153 1.1101973 396
6.284193 -5.5109601 1.1248782 440
6.2859559 -5.3638759 1.1131041 233
6.3380747 -5.286973 1.109897 424
6.4174919 -5.1901932 1.1068372 426
6.0998797 -5.9124947 1.3389136 492
6.0589795 -5.7334709 1.3180144 448
6.2025337 -5.5885348 1.3134156 418
6.293674 -5.5010023 1.3113096 500
6.2584624 -5.3462362 1.2939082 434
6.4570794 -5.2305493 1.2976589 434
6.0820723 -6.0554223 1.3524392 456
6.266613 -5.4576378 1.4965367 436
6.2298174 -5.7064214 1.5217011 450
6.2230592 -5.6146626 1.5105518 478
6.3841014 -5.4652176 1.5078777 616
6.3785706 -5.4669385 1.7055217 346
1.4847854 -6.1698895 0.13547118 292
1.5939586 -6.0280013 0.081970461 319.33334
1.7649218 -6.1044245 0.085515417 286
1.9299341 -6.0450506 0.12085333 170
1.9577051 -6.0092902 0.12065202 260
1.6189649 -5.9984221 0.13476133 386
1.3204741 -6.3059812 0.23023933 350
1.5087639 -6.3143888 0.22328305 304
1.5860462 -6.0041785 0.22443937 234
1.7864323 -6.1277175 0.21544202 252
1.9630623 -6.0852914 0.20938171 181
1.6125475 -5.9890671 0.22365625 378
2.0720825 -5.9274726 0.2072638 208
1.3434254 -6.3534231 0.32894269 343
1.5123965 -6.3757896 0.37769181 335
1.8558881 -6.3083177 0.42148113 354
1.4853472 -6.1811414 0.43013179 288
1.5725157 -6.2310219 0.37427279 290
1.8282332 -6.2287974 0.36688754 341
2.0165937 -6.251771 0.41575474 282
1.31205 -6.1264377 0.4343873 288
1.6294476 -6.1277514 0.37195289 358
1.981689 -6.1262221 0.30703551 288
1.6095996 -5.9940543 0.31916618 352
1.3385403 -6.2156615 0.54967648 294
1.5140731 -6.2687135 0.54684806 338
1.8255494 -6.17591 0.53541213 377
1.646908 -6.1304541 0.53829026 312
1.6882731 -6.3967075 0.67285234 318
1.340696 -6.1615944 0.667817 336
1.4681485 -6.1830606 0.66597092 268
1.5255777 -6.2674994 0.66933513 342
1.6864358 -6.25387 0.66499519 388
1.8736254 -6.2923198 0.66321039 394
2.0331545 -6.2813711 0.65950966 305
1.8021504 -6.1228294 0.65534592 396
1.7128602 -6.3167334 0.79951245 344
1.9102917 -6.3872981 0.80162513 432
1.6349684 -6.1705422 0.78987938 340
2.006187 -6.2669954 0.79130113 284
1.8040911 -6.1434278 0.78504813 382
1.4391799 -5.9120455 0.77400827 332
1.6843753 -6.4077282 0.94622374 326
1.8478373 -6.330997 0.93694794 368
1.4998727 -6.0230975 0.9118191 302
1.6685212 -6.0704985 0.9141016 276
1.8512969 -6.1103864 0.91590345 392
1.8157198 -6.2135415 1.0675654 362
1.9814905 -6.1994376 1.065274 328
1.579936 -6.1138678 1.1291151 440
1.6895211 -6.0560055 1.1929029 178
1.8611972 -6.07728 1.1236398 382
2.0463743 -6.1287103 1.056971 260
1.758984 -5.9957819 1.1844352 412
1.5818423 -5.9771762 1.3273668 348
1.7319334 -5.8963509 1.3146757 408
1.7056649 -6.0189543 1.4847859 484
1.7263101 -5.8826709 1.459625 244
1.84149 -5.8852158 1.4615397 432
1.5447528 -5.8179746 1.446045 424
1.865001 -5.8111687 1.5982009 426
1.6897379 -5.7981591 1.8984133 362
1.8546776 -5.7878261 1.9008294 414
1.9626547 -5.6251369 1.8629804 370
1.6627419 -5.6384807 2.0081325 484
1.7820822 -5.4865499 1.9693421 388
1.6652466 -5.5996795 2.1496949 420
1.8313305 -5.6207628 2.1636021 412
1.6241668 -5.5064001 2.1190076 646
1.7613498 -5.4595151 2.1103692 384
2.1357143 -6.0767498 2.3200886 428
2.0547595 -5.9442005 2.2748682 330
2.2028615 -5.8642659 2.2591357 328
1.6902846 -5.7822537 2.3654723 532
1.8764367 -5.8115025 2.3845854 430
2.0537183 -5.7681494 2.3806894 100
1.6948352 -5.6692448 2.3275616 634
2.0569379 -5.9577866 2.4439445 237
2.2247736 -5.9367118 2.4480853 388
2.2707846 -5.9318881 2.4498034 432
1.9009159 -5.7803354 2.5346551 416
2.0021954 -5.7814426 2.5417256 235
2.0419843 -5.6894946 2.5116301 426
2.2045953 -5.6977754 2.5271301 408
2.2058451 -5.391798 2.4191296 666
1.8963723 -5.9671788 2.6017575 516
2.2328267 -5.9671922 2.6250145 494
1.6045032 -5.8211913 2.6920204 406
1.8570843 -5.5816636 2.6142075 402
2.1369214 -5.6813173 2.6742835 428
2.1579363 -5.5238051 2.616256 426
2.2359426 -5.2802286 2.6797349 430
2.25998 -5.3775954 2.5707309 233
1.7714229 -5.8727865 2.7213264 390
2.0295334 -5.8789101 2.7412033 450
2.1205759 -5.8998399 2.7563424 466
1.7975527 -5.6172562 2.7771926 430
1.8642902 -5.56428 2.7603786 420
1.9285154 -5.5473843 2.7585871 432
1.9823627 -5.4209981 2.7115517 420
1.8396385 -5.3456173 2.8129933 393
2.1806843 -5.3347464 2.7685342 321.5
2.3445244 -5.3566942 2.7224252 362
2.0850151 -5.241931 2.792048 188
2.2680004 -5.1642141 2.7800407 243
1.7272316 -5.9544187 2.9120519 378
2.1998303 -5.8787584 2.9175971 482
1.7638859 -5.7705612 2.9146633 406
2.2771971 -5.8345027 2.9071038 416
1.8040907 -5.6480627 2.9420562 396
2.0451369 -5.4133172 2.8615654 261
1.8526967 -5.3060546 2.937933 274
1.6983324 -5.8439221 3.0204241 362
1.7739493 -5.6394215 3.0847588 393
1.8916101 -5.5753937 3.0654128 396
1.7846853 -5.5909529 3.207561 372
