# .PCD v0.7 - Point Cloud Data file format
VERSION 0.7
FIELDS x y z intensity
SIZE 4 4 4 4
TYPE F F F F
COUNT 1 1 1 1
WIDTH 1
HEIGHT 67
VIEWPOINT 0 0 0 1 0 0 0
POINTS 67
DATA ascii
0.87550378 -7.6134691 0.11905859 206
4.1429405 1.0154197 0.021575473 347.5
3.8881886 1.1773502 0.072900265 264
3.9592657 1.1660291 0.057776041 320.5
4.1255202 1.1363815 0.07014028 307.25
4.2423759 1.0806192 0.074935079 271
3.9617629 1.2693193 0.052086692 280.16669
3.4188828 1.487577 0.10423478 325.5
3.5358691 1.4668996 0.084484302 299.57144
3.8488436 1.4488529 0.038602985 273
3.9428864 1.4182 0.067104362 303.25
3.422251 1.5370027 0.091915146 304.75
3.4987736 1.5253588 0.095633775 279
3.9715908 1.115267 0.26618284 388
4.0898376 1.1591274 0.16755952 277
4.2524595 1.1695805 0.15993863 267
3.9846745 1.2162337 0.21932222 352
4.0648832 1.2396041 0.2305029 279
3.5575881 1.471806 0.2189168 363
3.6727614 1.4285152 0.2431159 235
3.5354822 1.5582041 0.21024029 282.33334
3.9654307 1.1481111 0.40606314 390.5
3.5757661 1.4674556 0.34021163 396
3.671088 1.4325845 0.40175912 386
3.5277841 1.5500984 0.30875805 390
3.6122034 1.5033467 0.30698568 224
3.8605242 1.1729252 0.55792105 405
3.9435067 1.0880545 0.51944637 354
3.853502 1.245497 0.5999074 412
3.7144828 1.4312624 0.54578811 394.66669
3.6688571 1.1546277 0.70602691 319
3.8351309 1.1325009 0.67757881 390
3.957541 1.0840307 0.64353609 395
3.7938895 1.2687491 0.67957926 303.33334
3.9242234 1.3118267 0.60620511 253
3.7391176 1.4507935 0.68323517 255
3.8098724 1.4149259 0.64529902 281.75
3.6774909 1.1538421 0.80417079 738.33337
3.8372319 1.1222688 0.85089672 305
3.9016993 1.1481041 0.77052784 257
3.6712513 1.2742965 0.79581487 600.33337
3.6444058 1.4162264 0.80112243 350
3.7895675 1.4366786 0.77334797 386
3.9009643 1.4759922 0.87874389 241
3.6985028 1.1639243 0.9676255 313
3.6299086 1.2532167 0.9409318 1527
3.7518945 1.2672379 1.0288296 355
3.6966255 1.4118834 1.0010772 849.66669
3.8740785 1.4589356 0.96813917 309
3.6782665 1.1549979 1.1452413 421.5
3.646523 1.2328572 1.1294312 350.33334
3.745347 1.3696318 1.129697 325
3.7541912 1.4741346 1.1409258 311
4.0192657 1.5113096 1.0923291 299
3.6999807 1.1487094 1.2885456 309
3.6677539 1.237909 1.2424116 916
3.821538 1.258134 1.3284607 273.5
3.6898468 1.4004741 1.2165058 2089
3.8872538 1.4457344 1.2628682 306
3.8578255 1.195873 1.4297614 303
3.947953 1.123189 1.4468632 291
3.8197966 1.2494971 1.4252491 288.5
3.9463966 1.0285088 1.5375532 301
3.8421071 1.1849709 1.5227147 420
3.9041462 1.1042367 1.532424 289
3.7878375 1.261776 1.564697 388
3.906523 1.2005829 1.6430835 259
