# .PCD v0.7 - Point Cloud Data file format
VERSION 0.7
FIELDS x y z intensity
SIZE 4 4 4 4
TYPE F F F F
COUNT 1 1 1 1
WIDTH 1
HEIGHT 196
VIEWPOINT 0 0 0 1 0 0 0
POINTS 196
DATA ascii
0.3457022 -7.3892779 1.0735077 264
3.0845895 1.0289878 0.066180699 327
3.7139816 1.0152211 0.13383897 273
2.9673748 1.1328659 0.053968288 333.39999
3.0695827 1.1555223 0.12353566 355.5
3.2159779 1.0508384 0.12317944 303
3.2094965 1.0442148 0.16399157 436
3.5259042 0.96693635 0.24740589 362
3.6102042 0.98832422 0.19056267 412
3.0965321 1.1355053 0.18761241 313
3.1771076 1.1039426 0.25858125 233
3.4615119 1.1266125 0.22323649 344.5
3.0813718 1.2278929 0.24607885 248.33334
3.2469189 1.2132021 0.25645855 265
3.4048004 0.93933284 0.3971341 322.5
3.4600208 0.95081246 0.30568352 380
3.1192811 1.091131 0.4257355 422
3.1663795 1.1045732 0.33942863 245
3.392535 1.0912639 0.38070482 342
3.0935264 1.2340007 0.37043709 258.66669
3.2837899 1.2136528 0.43134069 396
3.3195829 1.2354878 0.33946747 403
3.3852096 0.9399454 0.52851963 246
3.2119679 1.122792 0.52524281 258.5
3.3796742 1.0842392 0.53206599 245.5
3.1239624 1.2317262 0.52478552 262
3.2255774 1.2416677 0.52981937 339.5
3.3803816 0.84540761 0.6671567 273.5
3.4565463 0.83117974 0.71198314 245
3.2566633 1.0121924 0.6627543 266.5
3.3193369 0.97234988 0.66687143 291.5
3.0951474 1.093395 0.68665171 349
3.24828 1.1504636 0.66121459 257
3.3665962 1.0944922 0.63876987 249
3.1090431 1.258957 0.69711125 363
3.1620922 1.252107 0.65371907 261
3.1347313 1.4968978 0.67750418 325.5
3.1666412 0.88711941 0.82851553 2271
3.352643 0.82110047 0.77593309 260
3.4859943 0.88221365 0.87579 267
3.1488733 0.97398895 0.83100128 1835
3.2031374 0.99481767 0.78430474 1189.5
3.3938987 1.000123 0.81603783 290
3.4664507 0.98081046 0.87814808 263
3.0957432 1.1262484 0.79664958 1793.3334
3.185761 1.1164379 0.80816507 420
3.0813284 1.2508092 0.80362117 2117
3.2628484 1.267221 0.86738765 343
3.3500781 1.3011506 0.80166477 287
3.2036991 1.372407 0.86732984 321
3.3040316 1.3952531 0.8025713 261
3.1855166 1.5149873 0.79769689 295
3.3931739 0.79886794 0.97765088 359.5
3.4778118 0.8847388 0.99882668 292
3.1848004 0.95853597 0.94192231 650.60004
3.3646972 0.99006462 0.9984147 357.66669
3.4604409 0.97410774 0.95916498 271
3.1260164 1.1247889 0.91346681 983.66669
3.1874099 1.1072073 0.98515445 396.20001
3.1427798 1.2463862 1.0051298 358
3.1836956 1.3180869 0.96607465 343.66669
3.3590755 1.3109522 0.96705723 261
3.1820345 1.3952122 0.98703545 334
3.1938369 1.5022262 1.0409234 309
3.3700023 0.78395075 1.1359042 395
3.2414503 0.95440906 1.1191548 389
3.3877501 1.0288297 1.158695 247.5
3.1295459 1.1578566 1.1529279 1632
3.2065122 1.0975114 1.1184266 505.57144
3.1152673 1.2479366 1.1060227 1155.6667
3.3649426 1.3163991 1.0532217 289
3.271178 1.3583797 1.1240748 263
3.4763865 0.80389518 1.2911741 275
3.2105556 0.98393762 1.2355375 1489.6667
3.3134837 0.97536063 1.3455123 306
3.0952258 1.1728013 1.2262191 1911
3.2433159 1.156846 1.262892 323
3.3166335 1.1004667 1.2758292 321
3.1782842 1.3091494 1.264951 268
3.2424138 0.97652388 1.4552041 304.39999
3.1287112 1.0843365 1.4637774 388
3.2510562 1.0936296 1.3815677 285
3.3154554 1.1653614 1.3679347 289
3.2304356 1.2186378 1.43404 314
3.2626119 0.94254541 1.571709 321
3.187922 1.101943 1.5667812 372
3.206449 1.203683 1.5072813 302
2.9496758 -5.8092351 2.9773905 396
2.9547918 -5.7905293 3.1354909 386
2.9323483 -5.6186161 3.0614839 420
2.9705105 -5.5240541 3.0287902 420
2.9292774 -5.5138464 3.1734014 406
2.9897678 -5.8362279 3.3228393 394
2.9348326 -5.5142479 3.3263032 402
3.0138855 -5.8585358 3.4967899 358
2.8892233 -5.5443587 3.4787714 402
3.0191796 -5.5428815 3.502398 406
3.0360253 -5.8767762 3.6644943 366
2.8903773 -5.5531011 3.6248085 404
3.0307827 -5.5403733 3.646136 384
3.0643249 -5.9082165 3.8354523 382
2.9133413 -5.6086779 3.7926648 358
3.049706 -5.5529985 3.7920113 380
2.6967578 -5.4374762 3.8992708 388
2.707608 -5.4876704 3.8135474 402
2.8698523 -5.5237355 3.8658407 388
2.591948 -5.3166041 3.8101017 406
2.4633198 -5.1837807 3.8385234 378
3.0983472 -5.9519444 4.0080299 372
3.0608761 -5.5505633 3.9212477 374
2.7349837 -5.4979873 4.0468569 362
2.8760543 -5.544857 3.9969082 384
2.5455096 -5.2280741 3.9421329 352
3.1274214 -5.9854307 4.1681371 376
2.8836696 -5.5698586 4.120419 372
3.093672 -5.591517 4.071238 384
2.7362301 -5.4765224 4.1305847 362
2.8617558 -5.5325904 4.191658 358
2.5750604 -5.3063121 4.0753069 398
2.5062046 -5.238946 4.1147318 362
3.153316 -6.0125947 4.3170238 364
2.7680547 -5.5014954 4.3079038 356
2.861841 -5.5431533 4.2827969 366
2.4948094 -5.2033706 4.2008681 298
3.1748939 -6.0313692 4.449594 342
2.8576336 -5.5578065 4.4224124 324
2.8162167 -5.528584 4.484211 298
3.2084053 -6.0753593 4.5898919 328
2.7107639 -5.5471659 1.4250116 404
2.9391539 -5.4586344 1.4200656 385
2.7468686 -5.5998001 1.5878886 418
2.900234 -5.5056825 1.5778044 422
3.0128458 -5.4622574 1.5760905 390
2.7460678 -5.5686145 1.7364054 386
2.9072294 -5.5256777 1.7375121 392
3.0355637 -5.4811101 1.7369118 384
2.7555034 -5.2929358 1.6763183 426
2.7740774 -5.6021786 1.903734 392
3.1212854 -5.6239958 1.9364569 412
2.8994768 -5.5145998 1.8919604 239
2.7541733 -5.2635288 1.8197471 404
3.349715 -5.732512 1.982282 412
2.8012612 -5.6331816 2.0744491 406
2.9000475 -5.5208411 2.0530174 235
3.0920215 -5.5394878 2.0758541 402
2.7905519 -5.3136039 1.9881263 231
2.8228204 -5.6512265 2.2444661 402
3.2827239 -5.6128392 2.1139817 406
2.9100213 -5.5467029 2.2225549 257
2.797195 -5.3006415 2.1399171 410
3.127022 -5.5811677 2.2552035 408
3.2894092 -5.6301999 2.2872648 412
2.9015276 -5.5337296 2.3797593 243
2.838443 -5.3599777 2.3182123 422
2.8502378 -5.6819334 2.4209013 392
3.1497135 -5.5984688 2.4287727 410
3.2847493 -5.6263733 2.4540563 400
2.8892457 -5.512773 2.5329356 412
2.8522723 -5.361753 2.4774098 404
2.8815594 -5.7208352 2.6025987 386
3.2294216 -5.6250181 2.6144264 402
2.8970535 -5.4802685 2.6834121 406
2.9058423 -5.7439251 2.7802472 378
3.2524939 -5.6582584 2.7972989 410
2.9021568 -5.4796238 2.8431978 318.5
3.4004011 -5.8891945 3.7409143 350
3.3496695 -5.7794108 3.8300972 396
3.301631 -5.7074633 3.9259012 396
3.8755064 -6.3527246 4.05617 390
3.771709 -6.1603928 4.1081958 408
3.7078145 -6.0550346 4.1950102 380
3.4376545 -5.8819666 4.1826539 356
3.4546475 -5.9387217 4.0776005 396
3.2996881 -5.7188511 4.1894479 386
3.3370605 -5.7814994 4.1062646 402
3.8652194 -6.3075786 4.2002435 372
3.7099926 -6.0664291 4.344779 372
3.4659667 -5.9100075 4.3336329 348
3.3047047 -5.7369099 4.3141465 364
3.1363049 -5.6407704 4.2694912 382
3.893441 -6.3305864 4.3769808 378
3.7087502 -6.072351 4.4820271 370
3.4977012 -5.9448452 4.4787269 356
3.30545 -5.7475739 4.423779 372
3.9321256 -6.3720903 4.5582376 334
3.7032685 -6.0715518 4.6022329 354
3.5331964 -5.9869337 4.6196837 350
3.2984011 -5.7443509 4.5100675 364
3.1913087 -5.6939254 4.5285902 352
3.9736314 -6.4187078 4.7355018 336
3.7119417 -6.0964594 4.7295871 346
3.9931204 -6.4276943 4.8752985 344
3.5879402 -6.0431614 4.8430967 342
3.7062709 -6.0968647 4.8251019 356
3.6863663 -6.085073 4.962326 312
3.6893725 -6.1500654 5.1055899 368
