# .PCD v0.7 - Point Cloud Data file format
VERSION 0.7
FIELDS x y z intensity
SIZE 4 4 4 4
TYPE F F F F
COUNT 1 1 1 1
WIDTH 1
HEIGHT 111
VIEWPOINT 0 0 0 1 0 0 0
POINTS 111
DATA ascii
0.12240254 -5.8193126 1.1900539 334
2.4232717 0.8925845 0.11259131 259
2.2115171 0.99747944 0.1078532 518.33337
2.3641224 1.018358 0.12135907 274.33334
2.4680388 0.99229896 0.13771632 288
2.6358716 0.94955373 0.10707784 370.33334
2.7484806 1.0145899 0.031331122 353
2.1661444 1.0596288 0.095456958 377
2.6850288 1.1065328 0.049000278 395
2.3874519 1.0046937 0.17708884 275
2.4649317 0.98332775 0.22753274 278.86667
2.5695248 0.90429217 0.27771452 271
2.7536163 0.98436844 0.19335155 361.66669
2.7816131 1.2077018 0.27125859 277
2.5464265 0.8916226 0.31971341 261
2.5667121 0.89406025 0.38786656 261
2.4937565 0.98511153 0.36229414 261.72729
2.5294011 1.077462 0.41479936 253
2.693007 1.1545545 0.39378381 249
2.7345457 1.1808197 0.31886777 251
2.5433288 0.87947768 0.45998359 247
2.5700848 0.88878191 0.51403087 270.33334
2.5335286 0.99860704 0.51613188 275
2.5906341 0.95186967 0.53305763 269.85715
2.5465565 1.0816555 0.57504117 304
2.5923607 1.1047286 0.49566653 276
2.4689245 1.2725452 0.58013213 315
2.639339 1.2556106 0.56191361 342.5
2.4749227 0.85853976 0.7031613 535.40002
2.5512266 0.87136734 0.62124419 297
2.8754723 0.81177199 0.68357301 319
2.4492517 0.97615379 0.67331207 511.00003
2.609302 0.93090099 0.64979142 280.33334
2.4847062 1.1084274 0.69868815 421
2.4806147 1.2608511 0.66846305 347
2.5991731 1.2026286 0.64531112 284
2.650336 0.74982029 0.86881661 559
2.4966464 0.8672089 0.81861067 1430
2.6345873 0.84040928 0.85127342 443.33334
2.7562408 0.80354208 0.80561113 369
2.3966939 0.99002182 0.8022365 3679
2.4324141 0.96297371 0.81993836 1873.0001
2.5044312 1.1464969 0.82251072 592.125
2.4951229 1.2660791 0.8262791 315.5
2.5980225 0.7378211 0.98295248 577.66669
2.5144012 0.86092067 0.99092913 541
2.5816984 0.83067626 0.96267408 534.60004
2.4774425 0.97582668 0.97947353 510.83334
2.6046386 0.91653115 0.9375459 361
2.4794576 1.1167127 0.96555322 480.75
2.4786119 1.2410108 0.97065914 413.66669
2.5921099 0.74155009 1.1411785 428
2.5089543 0.85681778 1.1251538 1005.0001
2.6186888 0.78682137 1.1220392 392
2.4747734 0.97240078 1.1351731 1331.25
2.482491 1.1083342 1.1114784 744.11115
2.4773273 1.2057331 1.1076608 426
2.5742445 1.2122036 1.167594 315
2.6002858 0.85428953 1.2209494 297
2.4758961 0.91495341 1.2210033 1191
2.6221159 0.96434236 1.2936304 309.75
2.5379136 1.1086528 1.2073284 369
2.5819931 1.0980506 1.3075742 290
2.5717785 1.2502772 1.2415785 301
2.6494317 0.85985005 1.4324148 326.5
2.6239498 0.96264929 1.420332 390.20001
2.6550059 1.0771743 1.41793 284
2.7666898 0.8961969 1.5824757 273
2.7616844 1.0163647 1.6020128 275
2.6737394 1.0885077 1.5149972 273
0.6319502 -5.3644853 0.53892386 320
0.65038663 -5.4897304 0.64881325 336
0.71435171 -5.3563538 0.69358087 358
1.0394255 -5.3307748 0.7383604 388
0.63901132 -5.1864548 0.73770142 360
0.82958829 -5.1413078 0.72904432 400
0.87541306 -5.5191498 0.87477672 442
0.64025891 -5.3359938 0.80537969 379
0.80597031 -5.2750745 0.85259366 422
0.90399539 -5.3466983 0.85727823 434
1.0549768 -5.3673482 0.85605443 428
0.6520645 -5.1785002 0.84712064 369
1.0122564 -5.2185235 0.842448 402
0.8160001 -5.2737427 0.96948695 424
0.64845079 -5.1193824 0.95498502 410
0.86291307 -5.1588659 0.95474285 336.5
0.29170269 -5.4215808 1.1268661 261
0.36502165 -5.4152079 1.1235204 267
0.27364531 -5.3463049 1.11669 255
0.83957803 -5.399251 1.108941 438
0.9134419 -5.2537026 1.0868359 239
0.47922912 -5.1752462 1.0856326 416
0.6444515 -5.1410704 1.1374749 329.5
0.83466077 -5.1857123 1.0785834 253
0.67311758 -5.0902624 1.0683897 395
0.28998566 -5.4760566 1.2649359 251
0.86132133 -5.5018663 1.2545733 237
0.95119762 -5.4730816 1.248383 314
0.28414157 -5.3349991 1.2415516 269
0.37414908 -5.3364849 1.2388201 231
0.48722616 -5.2670102 1.223842 269
0.64799923 -5.2819972 1.2222493 334.5
0.84189427 -5.2862287 1.34841 249
0.83551788 -5.2108622 1.2066357 253
0.46330085 -5.4428158 1.3864986 257
0.66650224 -5.4742713 1.3874892 326.5
0.86546052 -5.4389229 1.3771473 256
0.53228998 -5.3912091 1.3747449 253
0.70521528 -5.3870406 1.369992 446
0.66746587 -5.4265695 1.5141692 356
0.67042363 -5.3643217 1.5921392 318.66669
