# .PCD v0.7 - Point Cloud Data file format
VERSION 0.7
FIELDS x y z intensity
SIZE 4 4 4 4
TYPE F F F F
COUNT 1 1 1 1
WIDTH 1
HEIGHT 127
VIEWPOINT 0 0 0 1 0 0 0
POINTS 127
DATA ascii
2.1934025 -5.7675242 0.29916054 380
1.1457672 6.2627006 0.10533597 410
0.81946427 6.3138857 0.038612679 400
0.92589664 6.3008423 0.071667552 402
0.93912816 6.2809849 0.19880569 392
1.1400756 6.2689033 0.23721635 416
0.81203467 6.3334656 0.20225039 368
0.96482146 6.2708621 0.44802931 374
1.1339315 6.2668848 0.38900161 412
0.80742061 6.3513026 0.34700719 272
0.95821929 6.3105779 0.34181571 408
0.97513783 6.2628684 0.56188732 388
1.1242975 6.235363 0.55647731 390
0.79918772 6.3180504 0.51182234 275
0.97501671 6.2435517 0.68195194 377
1.1204678 6.2307138 0.67728752 390
0.97772402 6.2296629 0.8085112 265
1.1244196 6.2815723 0.80885684 231
1.3223678 6.1841936 0.79698074 162
0.79436469 6.3548837 0.82300007 414
1.0683511 5.9064784 1.0400333 249
0.78555357 6.2812328 0.95156598 428
0.98365289 6.2403803 0.94267666 293
1.1099001 6.1949706 0.93544888 235
1.3328928 6.1764932 0.92933106 362
0.85596383 6.4281993 0.96413279 231
0.59566844 5.9814329 1.1978796 251
0.92848027 5.9810829 1.0517237 624
1.171245 5.9789405 1.1859692 251
0.75841832 6.0078778 1.1975971 492
1.08408 6.0399628 1.1958908 546
1.2400849 6.069489 1.0565445 231
0.8139053 6.2272663 1.0838301 247
1.3404406 6.1507707 1.0647256 132
1.0313627 6.3394227 1.0924509 338
0.58605301 5.8420482 1.3172041 454
0.73550498 5.7507558 1.2984327 261
1.0521741 5.8186069 1.3043183 267
0.33074641 5.9847679 1.301098 339.66669
0.83925021 5.8688498 1.3160133 231
0.92553329 5.994287 1.3353423 251
1.176455 5.9349732 1.3221899 432
0.5582 6.0191016 1.3475065 265
0.85390711 6.1449966 1.2150778 235
1.2276651 6.0201106 1.3357854 245
0.95522046 6.2455578 1.2273912 255
0.69175613 5.6441274 1.4193673 247
0.85810608 5.6549139 1.4184129 338.5
1.0334563 5.6935897 1.4235493 237
1.1568525 5.586987 1.4024192 257
0.56697541 5.7309132 1.4388512 255
0.73966843 5.8259134 1.4531089 372
0.29858547 5.8792148 1.475261 432
0.44711959 5.9669957 1.48733 326
1.0132962 5.8971367 1.4624283 245
1.188895 5.9380736 1.4686849 404
1.3406365 5.9465084 1.4697325 450
0.45253164 6.082828 1.3611606 243
0.71338165 6.0955873 1.3564112 456
1.0394317 6.2030673 1.3682446 416
0.56506646 5.6885405 1.5729967 424
0.87381959 5.5542893 1.5383677 243
0.98852873 5.6104336 1.5492812 434
0.40842998 5.83707 1.609436 432
0.70940793 5.7263408 1.5780345 233
1.1098995 5.7857218 1.5862118 502
1.340843 5.8807044 1.6062936 283
0.23968056 6.0369492 1.5075558 284
0.98367608 5.4849668 1.6634054 237
1.3397347 5.8086367 1.7414145 666
1.8097484 5.7875376 1.8992506 279
2.1910172 5.8957758 1.9422073 239
2.336483 5.8692327 1.9426967 418
1.280831 5.471384 2.0976844 245
1.5706395 5.4257255 2.0917993 261
1.4860497 5.6754889 2.0135777 261
1.7798986 5.6819143 2.0247607 263
1.928612 5.5977774 2.0072782 337.5
1.6561209 5.7377992 2.0363123 265
2.306411 5.7745118 2.0771618 478
1.6895448 5.914609 2.0879781 664
2.3728781 5.9571133 1.9668319 402
1.4549357 5.5375991 2.1229303 235
1.6115503 5.5044498 2.117909 277
1.7407315 5.5407734 2.1345992 273
1.8336753 5.7120032 2.1919401 448
1.9905009 5.8463674 2.2413025 259
2.1579709 5.7918024 2.2342312 346.5
2.3022006 5.7681241 2.2365065 243
1.8840359 5.9430566 2.1031053 331
2.194207 5.9288411 2.1137331 396
1.4708025 5.5153999 2.2662358 265
1.4689676 5.6104732 2.2984729 396
1.6359699 5.5556712 2.2865548 390
1.8340573 5.6683898 2.3343172 402
1.9875822 5.7607417 2.3740745 283
2.1672893 5.7669845 2.387989 239
1.3435016 5.5143733 2.4109559 318
2.1793437 5.4296956 2.4301958 259
1.9045448 5.5658922 2.4577694 281
1.8758751 5.7743835 2.5309501 422
2.3125808 5.8030877 2.4106257 249
2.1839595 5.8919258 2.4304311 273
1.8123877 5.5030031 2.5807447 279
2.0801108 5.4284921 2.5731273 263
2.2115743 5.526597 2.622247 249
1.7864138 5.7319446 2.6675971 267
1.9509106 5.7297654 2.678005 458
2.188092 5.7910175 2.5588872 253
1.6843752 5.3586397 2.8060882 241
1.2613431 5.5188904 2.7799096 314.5
1.4508913 5.5476646 2.7272704 257
1.8179127 5.4802313 2.7222552 241
2.1292007 5.538784 2.7729876 263
1.6055422 5.5979676 2.7566011 438
1.7207172 5.6173763 2.7719445 251
1.9376438 5.6905842 2.8180251 418
2.0949624 5.6347728 2.808743 243
2.0347335 5.7117696 2.8347695 154
2.0657871 5.8538775 2.7343879 251
2.1725426 5.8683996 2.7486203 255
1.498023 5.3785787 2.9430809 251
1.274699 5.4880333 2.9822295 318
1.5157884 5.5070114 2.8601546 422
1.6737 5.5164742 2.8746121 249
1.2999524 5.6166334 2.8980649 249
1.873172 5.6327662 2.9409456 235
