# .PCD v0.7 - Point Cloud Data file format
VERSION 0.7
FIELDS x y z intensity
SIZE 4 4 4 4
TYPE F F F F
COUNT 1 1 1 1
WIDTH 1
HEIGHT 73
VIEWPOINT 0 0 0 1 0 0 0
POINTS 73
DATA ascii
6.3965893 -1.5849537 0.058360279 326
3.5247307 2.7293925 0.042692512 140
3.633441 2.7958784 0.06060534 307.66669
3.7229955 2.9484177 0.10738018 342
3.5733776 3.2266974 0.090557992 345.66669
3.5758212 3.3060257 0.048397809 412
3.3908172 3.5131161 0.11432907 281
3.4515038 3.5921428 0.047660023 241
3.6768489 2.7823641 0.21051168 312.5
3.7926841 3.0155213 0.20514682 395
3.5302548 3.2255912 0.20265388 367.33334
3.6310723 3.2174938 0.24684101 328
3.332593 3.4316783 0.22105446 339
3.7329774 2.8151641 0.31826395 334
3.7799313 2.8443356 0.39960879 360
3.7710285 3.006515 0.36171103 388
3.5112045 3.264513 0.37013295 354
3.623584 3.1902387 0.40907848 384
3.3325367 3.4098306 0.37581879 337
3.8269839 2.8685913 0.53386176 381
3.7644424 3.0097303 0.53884757 321.5
3.5205913 3.283041 0.54774368 340
3.6447585 3.1948421 0.54550219 321
3.3300233 3.3846793 0.55029422 340
3.396476 3.4855692 0.50868434 298
3.7122927 2.9710329 0.67873657 311
3.8749084 2.8929806 0.68053967 241
3.6028001 3.1396027 0.68558997 231
3.5056739 3.2743485 0.6913383 368
3.3215213 3.3845367 0.69310355 384
3.7290144 3.3222525 0.70261502 251
3.3754718 3.4666083 0.60217488 292
3.0889261 3.6177862 0.7039485 310
3.7993796 2.8134837 0.87509513 979
3.6753261 2.9449735 0.82593203 808
3.8559961 2.868252 0.77930748 311
3.5725889 3.0955439 0.83281881 378
3.5164557 3.2913013 0.84758312 296
3.6989992 3.2975957 0.80460912 277
3.2913997 3.3022051 0.88726199 1465
3.327966 3.3537915 0.79105181 309
3.0714076 3.5824068 0.80097347 392
3.3744698 3.4738989 0.80393332 291
3.716269 2.9861021 0.99222159 311
3.8897038 2.8757143 0.99671221 307
3.5589297 3.067035 0.98718345 781
3.6361785 3.2430568 0.95846188 303
3.3360462 3.3868017 0.95283151 466
3.6164653 3.398659 1.0307434 259
3.3962882 3.5061915 1.0263582 301
3.1158156 3.6193304 0.96606857 302
3.6675239 2.9492698 1.1474727 1181
3.8954594 2.8704653 1.1083322 313
3.5999677 3.0946572 1.1037076 309
3.5720034 3.1868174 1.112937 394
3.3574767 3.3508008 1.1142131 305
3.5318012 3.3164134 1.1263458 303
3.268373 3.5621011 1.1364346 299
3.3435755 3.450774 1.1271034 311
3.1224778 3.6077898 1.1306727 295
3.8325155 2.8109314 1.2061957 567
3.9198241 2.8698637 1.3430618 291
3.5707884 3.0463078 1.3189328 1501
3.6062515 3.0897784 1.2162197 315
3.7505903 3.0267856 1.341759 352
3.3638697 3.2404838 1.2672695 1273
3.6122496 3.2510788 1.2409896 164
3.2586737 3.3589559 1.2174598 2747
3.3461056 3.326616 1.2218934 315
3.0737472 3.5264206 1.2824378 567
3.3489828 3.6616096 1.2766112 273
3.7970712 3.0707259 1.4753944 271
3.5871606 3.3800201 1.3774362 261
