# .PCD v0.7 - Point Cloud Data file format
VERSION 0.7
FIELDS x y z intensity
SIZE 4 4 4 4
TYPE F F F F
COUNT 1 1 1 1
WIDTH 1
HEIGHT 198
VIEWPOINT 0 0 0 1 0 0 0
POINTS 198
DATA ascii
-1.2255144 4.809444 0.13936396 370
3.8877928 0.13953719 0.020396143 346.5
3.8267555 0.21491459 0.075063743 303
3.8595064 0.31300896 0.10533935 312
4.1807003 0.42124355 0.059032343 295.5
4.2243814 0.40067193 0.057101168 348.5
4.1717739 0.52517843 0.071867093 297.75
4.2324777 0.51150376 0.03045316 300.5
3.850003 0.21214029 0.23858905 324
3.8579593 0.30638608 0.18058498 323
3.9395943 0.3067036 0.26507527 310
4.1676321 0.4248783 0.24452788 309.5
4.2226639 0.44223189 0.19410861 308
4.17278 0.52832735 0.19617799 312
4.2589679 0.54993963 0.24253975 294
4.0847759 0.13104388 0.4362278 285
3.8797953 0.21137187 0.36247343 321
3.9701691 0.21971619 0.41039532 309
4.1665583 0.42781952 0.40165776 314
4.2048464 0.32171148 0.36383566 509
4.362884 0.36289981 0.4432866 301
4.2316985 0.53733933 0.36479259 392
4.0441604 0.13391797 0.51180071 297
4.0616975 0.1388135 0.59282601 303
3.9899614 0.2340211 0.55729091 319.80002
4.1417093 0.42452067 0.55874354 321
4.2712059 0.35917759 0.5225786 307
4.107101 0.14479001 0.68016189 297
3.9686747 0.24999256 0.689861 322.5
3.9934561 0.34238791 0.67195463 327
4.1215405 0.42192769 0.68385434 322
4.222568 0.35914165 0.60446739 313
4.2522926 0.51993185 0.6963805 261
3.9940796 0.24066778 0.80001783 320.5
4.1035109 0.17275837 0.81244177 303
4.0009193 0.38975951 0.81190395 319.80002
4.0625243 0.38904637 0.76548362 305
4.1211967 0.49543536 0.81967872 311
3.9521923 0.26745266 0.97385305 361
4.0698562 0.23442069 1.0084581 316.66669
4.2228718 0.19839737 0.96925759 287
4.0084982 0.36487347 0.98447275 313
4.1249232 0.46878871 0.99010032 319
3.9883101 0.26137739 1.1190798 334
3.9481466 0.35719389 1.1438341 323.66669
4.1786361 0.47123301 1.1629605 315
4.2427816 0.49591726 1.1263905 297
4.020956 0.26330543 1.270469 320.5
4.0108352 0.36206931 1.2696913 307
4.2677345 0.48880351 1.2844914 227.5
4.1744289 0.066124305 1.4574941 350
4.0989342 0.25725091 1.4386722 345
4.2127414 0.20656185 1.4443392 303.5
3.9843698 0.34871253 1.408651 335
4.1648445 0.38750544 1.3588566 384
4.1866975 0.17799348 1.5643451 309
4.2122216 0.2601046 1.5738189 299
4.2270985 0.25631362 1.6816021 295
3.8376579 -1.2310402 0.054037362 315.25
3.952301 -1.2434467 0.085404977 322.66669
4.1368532 -1.1272839 0.050559629 304
4.1809759 -1.0346014 0.055723771 251
4.2599659 -0.98995131 0.048839249 290.66669
3.9307275 -1.2598685 0.22376461 319.80002
4.0387311 -1.0872403 0.26439768 309
4.0931458 -1.0994943 0.21525753 274
4.136651 -0.99521673 0.23022658 187
4.2060313 -1.0304691 0.16259545 218
3.8673799 -1.2448736 0.30104423 394
3.9602511 -1.2690561 0.4081161 377.5
4.0119982 -1.1454639 0.40673047 380.33334
4.1017971 -1.1084664 0.4072223 396
4.1281095 -0.99628085 0.40610135 383.5
4.0595222 -1.2805023 0.52847362 412
4.0001254 -1.1251755 0.52254868 393
4.0929079 -1.1526572 0.52680063 320.5
4.1510801 -1.0011256 0.5259735 240
4.0107498 -1.2524383 0.69610941 317
4.0661964 -1.2394879 0.64141983 241
4.0115185 -1.1164379 0.62683332 326.5
4.0568628 -1.1092347 0.69466054 249
3.9916685 -1.0439751 0.68719596 235
4.105711 -1.007504 0.651443 259
4.2607536 -1.4058088 0.81865525 291
3.9653661 -1.2286158 0.82597154 1175
3.8743734 -1.1030412 0.854581 343
3.9276142 -1.1290954 0.80845863 343
3.8821273 -1.0026003 0.85085404 321
4.0090556 -1.0176636 0.82157934 946
4.0929933 -1.0100491 0.78474987 273
4.1409245 -1.3788292 0.96809483 336
3.9935935 -1.2292271 0.97028291 317
3.8565176 -1.0940365 0.97964698 1498.6
3.8393147 -0.9828155 0.97913915 333
4.0557871 -1.007854 0.96741486 307
3.9825096 -1.2168232 1.1133069 325
4.0656643 -1.3483104 1.0875763 327
3.8175559 -1.0631106 1.1193583 361
3.9185038 -1.1915122 1.0999236 349
3.9980984 -1.0090328 1.151336 319
4.0508609 -1.0103229 1.0633175 323
4.1239939 -1.3727624 1.2022318 301
3.8365555 -1.0934541 1.2690567 388.5
3.9268532 -1.1619027 1.278849 466.33334
4.0157437 -1.0083504 1.2538373 239
3.9947548 -1.1131234 1.4585636 290
4.0249605 -1.0138788 1.424291 304
4.1317048 -1.0433671 1.385397 285
3.8826015 -1.0666754 1.5223224 313
4.0076852 -1.1280823 1.565345 271
3.972795 -0.97117853 1.5402668 324.33334
3.5920455 5.520772 2.9712646 86
3.7166939 5.3875446 3.1104026 247
3.4153574 5.5218639 3.1041281 250
3.5544553 5.5105886 3.1258354 372
3.6476595 5.4062829 3.1036625 376
3.6484778 5.3850842 3.2563474 265
3.3792248 5.4634318 3.2335207 235
3.5629864 5.5156622 3.2918885 321.5
3.364404 5.4425564 3.3767736 251
3.5457935 5.4776936 3.4305062 370
3.2181766 5.5800629 3.4083204 284
3.3935487 5.5876193 3.4464939 416
3.4639831 5.3276243 3.49615 402
3.1868486 5.4958634 3.5135229 382
3.3677053 5.4855413 3.5468698 404
3.5119698 5.4173422 3.5478063 414
3.6938536 5.4129062 3.5883639 259
3.7752841 5.4893365 3.4866562 259
3.1156495 5.6725006 3.5823209 242
3.1820326 5.798903 3.4996283 368
3.4238641 5.2272902 3.7150295 214
3.4815722 5.353488 3.6554565 355
3.6643023 5.3355255 3.6920214 356
3.8291638 5.2850327 3.7113087 446
3.0136037 5.4728217 3.676178 412
3.1876507 5.4760075 3.6473262 259
3.0649908 5.5983615 3.6817105 176
2.9406223 5.7075243 3.7115605 326
3.1222162 5.7395139 3.6152859 328
3.6957691 5.1057982 3.8541203 268
3.9417064 5.1677785 3.8264256 358
3.6575828 5.3176246 3.8194027 328.5
3.1916234 5.4748192 3.7831993 392
3.3564513 5.4460902 3.8069816 382
2.758693 5.685266 3.8029058 370
2.9029927 5.6044478 3.8518867 389
3.0580645 5.5703273 3.8026855 384
3.5975001 5.2405834 4.0132356 260
3.6949949 5.1111636 3.9748166 241
3.245153 5.3266597 3.9642706 184.66667
3.4929099 5.3381119 3.9552515 360
3.0357845 5.4967971 3.9262619 356
3.1829743 5.4833598 3.9135137 324
3.3469162 5.4239378 3.9220066 274
3.7109926 5.412354 4.0111775 540
3.5469949 5.0650673 4.1089978 376
3.5949259 5.1571856 4.0764384 428
3.6650078 5.3195362 4.1285172 378
3.3598726 5.4896054 1.295421 442
3.3970819 5.4863234 1.4496448 341.5
3.6217828 5.5266852 1.4702238 404
3.4722874 5.3265657 1.5820512 390
3.3833823 5.483108 1.6047578 257
3.3103001 5.6424956 1.6298895 245
3.6340208 5.552197 1.6362334 281
2.98417 5.7402315 1.6284952 584
3.1967175 5.4798713 1.7488427 243
3.3903985 5.4712286 1.7627262 241
2.7949836 5.6962032 1.7676835 442
2.9126306 5.5941782 1.7528582 255
3.1154599 5.6167674 1.7720777 253
3.4591291 5.560183 1.7872125 243
2.7931497 5.7267542 1.7743343 259
2.9560649 5.7073274 1.7805581 478
2.9324107 5.6286712 1.9221684 550
3.6243646 5.5557489 1.8006518 239
3.2936182 5.621738 1.9510493 275
3.4768882 5.5980024 1.9626807 265
2.8442357 5.8126888 1.9603792 510
3.1627152 5.7138624 1.9614567 231
2.8853359 5.9047494 1.9859082 500
3.0624704 5.9167571 2.0021496 482
3.2348814 5.8577585 2.0019813 416
3.4567206 5.9392486 2.040781 488
2.8270745 5.7427702 2.1060433 231
3.1918998 5.7437778 2.1390958 253
3.401432 5.8182573 2.1794069 351.5
3.0631063 5.8752732 2.1618302 249
3.2785585 5.9492474 2.2013752 442
2.9277465 6.0066848 2.185353 249
3.1118629 6.0267887 2.2064805 470
3.138422 5.6769977 2.2838445 312
3.2998657 5.643084 2.2921035 362
3.000438 5.7145724 2.2802875 420
3.2595968 5.8486233 2.346031 291
3.4062724 5.7914386 2.3462365 346
2.904249 5.8849211 2.3205328 426
