# .PCD v0.7 - Point Cloud Data file format
VERSION 0.7
FIELDS x y z intensity
SIZE 4 4 4 4
TYPE F F F F
COUNT 1 1 1 1
WIDTH 1
HEIGHT 57
VIEWPOINT 0 0 0 1 0 0 0
POINTS 57
DATA ascii
6.1734228 1.9481988 0.067422777 422
-0.061289236 1.4123719 0.26733831 498.125
0.0027101412 1.3974735 0.26056463 581.5
-0.27901956 1.6415231 0.28090566 368
0.021428183 1.5004911 0.22584601 418
-0.26156542 1.6946064 0.26634464 346.80002
-0.066181406 1.4233894 0.37187204 511.1778
0.011658614 1.429704 0.36621019 559
-0.23378076 1.6234996 0.36997095 376.66666
-0.30573535 1.6670234 0.40450668 322.33334
-0.21292335 1.6770411 0.31837448 357
-0.17801306 1.4442896 0.57077104 428.33334
-0.073781498 1.4178052 0.5219543 561.0625
0.021158531 1.4505957 0.50355124 521
-0.30314592 1.6460066 0.57963049 383
-0.22758977 1.6029478 0.49168181 365.00003
0.012477309 1.5363302 0.58237183 424
-0.26058748 1.6572863 0.57782435 429
-0.20115213 1.4326609 0.66721511 489.39999
-0.076240502 1.429798 0.66541141 534.64703
0.028351828 1.4896002 0.67327929 431.66669
-0.018117588 1.6133578 0.67442554 401
0.022427127 1.5133327 0.65249062 511
-0.30912849 1.6609635 0.62241578 363
-0.075739063 1.436277 0.80877185 526.36365
0.018297829 1.4870791 0.78345305 547
-0.024553288 1.5958778 0.82967579 443
0.019538036 1.5433576 0.84751976 453
-0.085087925 1.4398451 0.97851837 561.125
-0.038509659 1.5378439 0.95941389 469.83334
0.0041409135 1.5495822 1.0119491 470
-0.016544223 1.6978103 1.0055661 399
0.031085745 1.7075042 1.0161397 373.5
-0.021283418 1.8515575 1.0125954 309
0.0010353327 1.8047794 1.0433494 313
-0.084806778 1.4493551 1.1321669 468.8667
-0.043038715 1.5701298 1.1245339 378.14288
0.11311748 1.6255999 1.1640218 446.20001
0.17884421 1.6181355 1.1714623 618
-0.02023261 1.6919317 1.1173695 352.5
0.077762656 1.6860653 1.1209877 369.42859
-0.017958462 1.821364 1.1498833 233
-0.094663687 1.4418278 1.23689 407
-0.074419372 1.5444598 1.2852566 389.18182
0.1083851 1.6260489 1.2339667 373
0.21783468 1.6310199 1.2151368 339
-0.040565886 1.7101356 1.280502 319.57144
0.1074311 1.6812484 1.2686341 320
0.199624 1.6759503 1.2599065 384
-0.072080106 1.5728227 1.4197019 334.93103
0.0028884858 1.638818 1.4629208 307
-0.085178107 1.6613593 1.4413712 293
0.099904269 1.7013443 1.3759295 333
-0.023105428 1.6361682 1.5290403 295
0.03902711 1.6386081 1.520617 357
-0.017670035 1.779732 1.5048511 555
-0.01334399 1.897513 1.6365693 441
