# .PCD v0.7 - Point Cloud Data file format
VERSION 0.7
FIELDS x y z intensity
SIZE 4 4 4 4
TYPE F F F F
COUNT 1 1 1 1
WIDTH 1
HEIGHT 57
VIEWPOINT 0 0 0 1 0 0 0
POINTS 57
DATA ascii
1.5278412 2.0955639 0.11875886 359
1.0073345 1.4408319 0.23554583 280.55557
1.1087199 1.4344921 0.25605455 289
1.2647117 1.3988965 0.200652 281.80002
0.73327798 1.6043642 0.20843546 281.66669
0.81400669 1.586004 0.24558291 277.34286
1.1488307 1.6397717 0.25674599 622
0.75234044 1.7241604 0.20775205 563
0.96060741 1.7540309 0.22851796 557
1.1938676 1.7886624 0.29210815 537
1.0213104 1.4313074 0.37484616 269.25
1.0942965 1.4152945 0.37028289 268
0.82709396 1.6069924 0.36026511 263.38708
0.94458646 1.590916 0.38359791 263.20001
0.82806921 1.6977396 0.43222016 293
0.96993566 1.6572183 0.3608793 261
1.0988967 1.7833354 0.4331626 563
1.0348718 1.8186686 0.3620255 535
1.0688467 1.9084318 0.32779074 491
1.2378517 1.876974 0.32214549 499
0.82571375 1.2486171 0.59224308 431
0.87193412 1.4586166 0.58522052 307.39999
0.98025012 1.4198477 0.53797823 289.07144
1.0899162 1.3950112 0.52850854 282.69232
0.85610843 1.5857106 0.51435328 277.94736
0.9527536 1.5700693 0.49523389 276.81818
0.78474635 1.1946709 0.69690216 575
0.81338841 1.2425275 0.67794353 555
0.96829152 1.3057715 0.69760984 472.69232
0.80908263 1.4184954 0.67432576 459.55557
0.96708882 1.3822621 0.65549159 302.73334
1.0686663 1.4006135 0.67124003 272.33334
0.82175863 1.5755268 0.65041208 291.14288
0.7482456 1.3492173 0.79147255 2245
0.83048874 1.2612929 0.81444311 1540.5862
0.97007507 1.299142 0.82131183 1150.6924
0.7498672 1.3550777 0.83140206 2447
0.79240936 1.425683 0.82156384 942.60004
0.76548171 1.5005093 0.83855462 386
0.83293974 1.2606792 0.96284455 622.29999
0.9529053 1.2954789 0.97690475 643.38098
0.80982006 1.4579132 0.96974641 503.66666
0.83200133 1.5378803 0.96932352 329
0.85512102 1.2686992 1.1160399 534.42859
0.94297427 1.2686203 1.1172917 736.70001
0.82634079 1.394573 1.1183749 452.875
0.799887 1.5062683 1.1521537 352
0.90930939 1.610989 1.0652783 301
0.8935169 1.6719148 1.1339188 273
0.86691964 1.279552 1.232934 373.39999
0.98131531 1.3225486 1.2757666 484
0.99414307 1.3726943 1.2990733 414.20001
0.99041212 1.3358793 1.3654956 400.5
1.1808589 1.3080583 1.4086287 638
0.93952191 1.3807938 1.3685974 362.71429
1.1428094 1.3919133 1.4505625 378.5
1.2391217 1.3904345 1.4369745 333.5
