# .PCD v0.7 - Point Cloud Data file format
VERSION 0.7
FIELDS x y z intensity
SIZE 4 4 4 4
TYPE F F F F
COUNT 1 1 1 1
WIDTH 1
HEIGHT 51
VIEWPOINT 0 0 0 1 0 0 0
POINTS 51
DATA ascii
3.2871375 -7.2084675 0.08835382 300
4.5720205 0.42768264 0.14679578 236
4.7703266 0.43729734 0.013865739 261
5.0464554 0.36911383 0.12450826 348
5.1377878 0.38564396 0.073061429 291.33334
4.5890265 0.50897777 0.085102364 282.66669
4.6760483 0.55382752 0.095443249 307.75
4.7143922 0.44678563 0.20955026 311
5.0624743 0.37689757 0.23895112 363.5
4.7088866 0.58835262 0.23492303 394
4.8111215 0.46154839 0.28355956 382
4.8390923 0.60154206 0.28345656 366
5.0048347 0.37185308 0.36660507 371
4.7265029 0.58679909 0.36655265 358
4.9029121 0.47765821 0.36663061 367
4.9313669 0.39698976 0.50352049 408
5.0094972 0.34056401 0.50535405 383
4.9001937 0.52777457 0.49395528 382
4.9647589 0.47414306 0.55287772 422
5.0659504 0.24431197 0.65743506 289
4.8766766 0.36091587 0.69680822 326.75
4.8889446 0.50197828 0.68224168 310.66669
4.9580312 0.49702349 0.65250027 412
5.0717978 0.65300578 0.66153884 154
5.0173907 0.24124883 0.82376951 280.39999
4.7754316 0.40098479 0.84274852 2373
4.8071856 0.37403637 0.84592772 3044
4.8777075 0.58051932 0.80327743 442
5.0092387 0.50758702 0.76064146 245
5.0334167 0.6554209 0.81976891 352.5
5.1349516 0.74551326 0.88745248 274
4.9280939 0.22064149 0.96733034 323
4.9884872 0.2955848 0.97599578 319
4.8687258 0.38693899 0.96137875 319
4.9425197 0.54512858 0.97368377 304
5.0069933 0.68970233 0.98526126 288
4.8613682 0.29472923 1.1452042 1485.6667
4.969265 0.19300219 1.0858254 263.5
4.7881322 0.41976434 1.1723166 2369
4.8880224 0.38637766 1.0755129 319
4.8780355 0.54635918 1.1531737 409.33334
4.9609952 0.51755184 1.0892112 309
4.9679389 0.70769519 1.0949956 303
4.9598022 0.29447868 1.319454 315
4.9281526 0.43472096 1.3155892 309
4.9588156 0.43289548 1.3218405 305
4.8418975 0.54990274 1.3008754 319
4.9390917 0.28755692 1.4344794 330
4.9802356 0.43682393 1.4470613 241
5.0247874 0.28711027 1.5772443 428
5.0277452 0.4274947 1.5810968 245
