# .PCD v0.7 - Point Cloud Data file format
VERSION 0.7
FIELDS x y z intensity
SIZE 4 4 4 4
TYPE F F F F
COUNT 1 1 1 1
WIDTH 1
HEIGHT 193
VIEWPOINT 0 0 0 1 0 0 0
POINTS 193
DATA ascii
2.3954432 -4.8917603 0.00043389201 251
2.4886303 -3.9398394 0.14994287 610
2.4136546 -3.8937397 0.097334325 247
2.7254763 -3.8793988 0.13995999 488
2.4787023 -3.7311697 0.074489862 257
2.8620043 -3.643991 0.083092347 303.66669
3.4319963 -3.6610417 0.046748877 287
2.9348364 -3.5472753 0.075105429 299.5
3.0355675 -3.507632 0.091202602 302
3.3867705 -3.5978088 0.11278746 414
3.0497947 -3.3610439 0.081150308 1596.6667
2.3447964 -3.8280113 0.23664902 280.39999
2.6236272 -3.7512209 0.28056774 384
2.3527448 -3.7079363 0.25619063 257
2.4541259 -3.6816013 0.22070806 288.83334
2.5790744 -3.6693122 0.23683679 354.66669
2.7611637 -3.7396078 0.27604559 296
2.926136 -3.6539195 0.23538917 297
3.4293866 -3.6243007 0.2540727 237
2.9402652 -3.5896211 0.23515332 295
3.0515149 -3.5409448 0.23122136 299
3.2187281 -3.5606771 0.26079416 357
3.3797696 -3.5786319 0.18188082 382
3.0932331 -3.4068172 0.21867788 907
2.3643293 -3.9710314 0.40596911 348
2.8858578 -3.9026091 0.43678916 302
2.3828573 -3.7732384 0.40087986 341.5
2.4571009 -3.8326302 0.41400409 300
2.553699 -3.8171253 0.43873584 1751
2.7408764 -3.8358331 0.40364233 357.60001
2.8720024 -3.8959987 0.35182872 304
2.4623365 -3.6875024 0.35814679 400
2.5891588 -3.6813962 0.35500932 396
2.9328034 -3.6482034 0.39564723 303.80002
3.2887886 -3.627367 0.38110703 299
3.4219503 -3.6041548 0.33510923 416
2.9591694 -3.5968633 0.34512341 305
3.0556698 -3.5397825 0.38285214 353.5
3.1098742 -3.4301982 0.37972581 810
2.4396322 -4.0881157 0.53823137 322
2.4835889 -3.9287138 0.53000456 253
2.6644359 -3.986644 0.5318296 301
2.7614696 -3.9658549 0.53039598 291
2.3906777 -3.7952144 0.52400064 261
2.5395882 -3.8376703 0.52521485 265
2.6619251 -3.7699261 0.52139324 336
2.8530998 -3.8901639 0.52648741 406
2.7923524 -3.7493088 0.52001166 390
2.9138389 -3.6545727 0.51542699 501
3.3605649 -3.6949613 0.5175426 251
2.9748037 -3.5927165 0.51256144 315
3.0672767 -3.5002897 0.53100139 914.5
3.1500401 -3.4902611 0.59993982 367
2.6470282 -4.2014651 0.64038539 257
2.6308846 -4.0957232 0.70858312 303.75
2.4832044 -3.9659991 0.62400275 271
2.7670116 -3.9817581 0.69336796 246.33334
2.649488 -3.8442514 0.64895439 282
2.8201773 -3.8454673 0.61806834 267
2.8629308 -3.8770723 0.66999066 410
2.8475211 -3.661387 0.60662144 1265
2.9259303 -3.6784124 0.65650451 342
3.0651288 -3.6703262 0.6589039 366.5
2.9874489 -3.5966785 0.60416508 319
3.1357515 -3.5937061 0.70333374 289
3.1984775 -3.5533156 0.7019825 303
2.5913281 -4.1698508 0.84455562 295
2.8072724 -4.0535259 0.8382864 303
2.5712097 -3.9055247 0.81643283 297
2.7291481 -4.0453982 0.83520615 410
2.8764434 -3.9396231 0.82888138 390
2.672569 -4.0820866 0.94607604 277
2.6335855 -4.3573637 1.0963329 292
2.7126522 -4.2266273 1.199174 366
2.2714875 -4.1691132 1.16545 190
2.5360615 -4.0794969 1.0511646 414
2.5540097 -4.1918201 1.1840622 284
2.6504843 -4.0488496 1.0522202 251
2.785147 -4.0268507 1.0560505 408
2.6417735 -4.274189 1.2029018 396
2.3563459 -4.0672922 1.2657171 280
2.4158752 -4.1371284 1.2829518 239
2.4415591 -3.9674735 1.2522366 152
3.7539995 -7.7458487 4.4863491 344
3.5689912 -7.9904904 4.57056 302
3.5817306 -7.8712592 4.5169797 344
3.7610579 -7.8533506 4.537003 318
3.2813916 -8.5255365 4.7830181 274
3.3330472 -8.5061312 4.7803602 292
3.5922799 -8.0035191 4.7879982 330
3.5842309 -7.8860035 4.7293749 304
3.7844441 -7.865644 4.7529488 330
3.7483249 -7.7416286 4.6868653 336
3.5847325 -7.8965821 4.932457 312
3.7927454 -7.844718 4.9427843 316
3.7515633 -7.7577796 4.8914948 344
3.3183084 -8.5773773 5.0310373 112
3.299238 -8.4223499 4.9512868 268
3.6217546 -8.0317736 5.0075736 282
3.3073256 -8.4755287 5.1872149 300
3.6057653 -7.952177 5.1533518 284
3.6016674 -7.9472289 5.1500044 308
3.8021674 -7.8272371 5.1237588 314
3.7337987 -7.7383718 5.2392812 298
3.7650132 -7.7975335 5.1011133 316
3.2999747 -8.4471111 5.3684745 310
3.6219194 -7.9504251 5.3336406 342
3.5689406 -7.8802099 5.285305 306
3.8101223 -7.8074198 5.2919388 324
3.3303058 -8.5096235 5.4067936 300
3.5551248 -7.8591394 5.4360714 330
3.6284707 -7.9269328 5.4885883 296
3.7456861 -7.7763124 5.42697 296
3.8214948 -7.7961273 5.4537315 296
3.2975962 -8.4534016 5.5575004 298
3.3262711 -8.4500751 5.5601063 308
3.5488837 -7.8574147 5.5835452 312
3.6252794 -7.8819709 5.6130366 260
3.7297053 -7.7530971 5.5597453 280
3.8384557 -7.7982497 5.6089945 286
3.292973 -8.454546 5.7315722 258
3.3737755 -8.5340109 5.7906461 314
3.6749239 -7.961998 5.80791 274
3.5369616 -7.843112 5.7085991 270
3.8796272 -7.8539805 5.787878 292
3.7332144 -7.7820482 5.7724409 273
3.289649 -8.4608936 5.8929358 308
3.3540275 -8.4345798 5.888072 304
3.4476471 -8.2617197 5.943603 288
3.4851081 -8.3431673 5.8568716 306
3.5043621 -8.1047668 5.8594508 280
3.5685956 -7.9349666 5.8894715 302
3.6566129 -7.8515205 5.9585247 260
3.279716 -8.4594116 6.0966005 259
3.3731024 -8.4430752 6.0403399 244
3.4609332 -8.3137846 6.1015334 298
3.4905651 -7.9975443 6.0145478 292
3.5363746 -7.8935676 6.0414505 254
3.6855137 -7.8030567 6.1428556 266
3.716445 -7.7859073 6.0132804 278
3.3669021 -8.3454008 6.209619 234
3.4190977 -8.2445335 6.241025 258
3.5191796 -7.9448872 6.1972723 262
3.3908372 -8.2728882 6.3846278 230
0.2822797 6.6752653 0.86352396 326
0.1181097 6.8077521 0.87947106 370
0.45173723 6.5435586 0.98697615 430
0.356794 6.6885138 1.0042871 241
0.5183382 6.6869926 0.99898803 268
0.11339568 6.886518 1.0322214 237
0.23041064 6.7759399 1.0171912 332.5
-0.039430737 6.9750462 0.97205228 370
0.27682298 6.7473001 1.1621026 251
0.37023336 6.7360182 1.1576107 257
0.52978784 6.6539092 1.1427406 350
0.19387022 6.8319225 1.1752038 233
0.056160256 6.946434 1.1941121 243
-0.074843794 7.0613694 1.0565194 428
0.41593552 6.6747122 1.3025246 319.5
0.5436821 6.6783357 1.2991732 340
0.10866247 6.8620629 1.3400933 384
0.24066754 6.7986336 1.3261619 244
-0.18586555 7.0404115 1.2151339 216
-0.076151937 7.0302162 1.2093701 420
0.42034593 6.6186972 1.4517225 378
0.55523086 6.64222 1.4516698 304
0.24651523 6.7633815 1.4817128 298.5
-0.079041094 7.0355291 1.3724593 416
0.015963793 6.9717226 1.3594315 235
0.42611331 6.6330261 1.6155124 409
0.56822288 6.6384439 1.6124662 218
0.62638688 6.6516886 1.6134982 234
-0.15572539 6.9972711 1.5370356 378
-0.081277072 7.0314589 1.5394509 422
0.068514213 6.909832 1.5129168 316.5
0.43232661 6.6524944 1.7852393 287.5
0.62487745 6.6615953 1.7819705 318
0.23409525 6.8186789 1.6575089 247
-0.14139605 6.989841 1.7058398 402
0.044032127 6.9543066 1.690878 422
0.62206686 6.6444349 1.9481819 356
0.1014692 6.8830805 1.8469697 414
0.26776206 6.759315 1.8138 422
-0.10624206 7.003458 1.8821831 395
0.26165113 6.7207723 1.9773824 354
0.43863994 6.6763654 1.9607739 257
0.074852183 6.855444 2.0173838 370
0.26582757 6.7888455 1.9937114 243
-0.10009646 7.0029793 2.0611 345
0.098733336 6.9146132 2.0306897 412
0.44835475 6.6523604 2.1273112 255
0.087779671 6.8943949 2.205339 231
0.27535319 6.7594237 2.1616757 243
