# .PCD v0.7 - Point Cloud Data file format
VERSION 0.7
FIELDS x y z intensity
SIZE 4 4 4 4
TYPE F F F F
COUNT 1 1 1 1
WIDTH 1
HEIGHT 53
VIEWPOINT 0 0 0 1 0 0 0
POINTS 53
DATA ascii
2.0110254 5.3474169 0.063425839 384
-1.0402913 5.770824 0.40876001 416
-1.080373 5.8855629 0.34784192 274.66669
-1.0395553 5.7362957 0.50802928 378
-1.1001264 6.0177732 0.5156424 354
-0.97066808 5.7830958 0.67068172 340
-1.0957519 5.9691143 0.74356043 274
-1.0466074 5.8626328 0.73538351 414
-1.2823439 6.0968742 0.63837206 208
-1.1101092 6.0462089 0.62914741 346
-1.0682762 5.8361163 0.85679972 366
-0.86992145 5.8654532 0.84905511 228
-0.95859218 6.0458012 0.86704028 212
-1.0168711 5.8304334 0.98089504 626
-1.2393916 5.952693 1.0052834 453
-1.1018262 5.970129 0.99903977 414
-0.88363016 5.9956164 0.98956466 352
-1.0007378 5.8092976 1.1098119 550
-1.2281295 6.0703239 1.1544813 368
-1.0105797 5.9084768 1.2615995 370
-1.1177019 6.0168304 1.2838421 462
-1.0350899 6.0784745 1.4351774 356
-0.96429372 6.01367 1.5695789 386
-1.1568112 6.1663299 1.6128153 344
-1.1595477 5.9930778 1.7351497 370
-1.1295555 6.0395222 1.7423836 114
-1.0014889 6.0378137 1.7314668 326
-1.6447341 5.6978121 0.10304457 186
-1.5224895 5.671597 0.24720025 270
-1.6547514 5.7128448 0.17195994 318
-1.4105678 5.3885732 0.42069954 360
-1.6552556 5.6813827 0.38314113 350
-1.4782465 5.5922613 0.36260757 326.66669
-1.5661803 5.4018464 0.52250946 364
-1.4525301 5.5461593 0.52061051 362
-1.4967364 5.6527758 0.52433139 360
-1.5540296 5.3513856 0.67842263 357
-1.4268402 5.4524212 0.69458789 365.33334
-1.451979 5.5787072 0.62719774 324
-1.3533746 5.327117 0.83433223 364
-1.4445226 5.4551868 0.84894729 320
-1.4411232 5.4355369 0.96872663 288
-1.424342 5.5970225 0.98282421 428
-1.3689494 5.7069573 0.98974109 376
-1.0594758 5.4316964 1.1982375 324
-1.3807828 5.6123233 1.1113231 373
-1.2803409 5.6615405 1.1102377 372
-1.0166999 5.5889049 1.0848947 400
-1.2182789 5.7502728 1.1164939 356
-1.2790966 5.3771524 1.2064174 358
-1.2285784 5.5138903 1.2215943 398
-1.1666706 5.541925 1.2210504 376
-1.2448161 5.6165786 1.3756846 362
