# .PCD v0.7 - Point Cloud Data file format
VERSION 0.7
FIELDS x y z intensity
SIZE 4 4 4 4
TYPE F F F F
COUNT 1 1 1 1
WIDTH 1
HEIGHT 66
VIEWPOINT 0 0 0 1 0 0 0
POINTS 66
DATA ascii
1.6142859 1.187385 0.147423 657
2.8010452 1.1611996 0.071493268 333.85715
2.8871512 1.1433005 0.10436921 297
2.1516938 1.3411485 0.083869427 403
2.4555497 1.2834693 0.10283314 413.54547
2.5511765 1.2646762 0.13665257 299
2.7646828 1.2924918 0.081842117 337.66669
2.1983125 1.4209 0.1110591 352.71429
2.3787348 1.4249786 0.10897272 390.20001
2.432389 1.4175404 0.10304697 389.00003
2.8250499 1.3620161 0.039555162 275
2.8610153 1.3683313 0.10935831 307
2.1536374 1.5549842 0.10457811 338
2.7844415 1.1524282 0.19981563 376.75
2.8754907 1.118687 0.23603676 359
2.475121 1.2884722 0.22471717 443
2.7673934 1.2770132 0.21825163 381.28574
2.2009766 1.4174176 0.22167774 369.20001
2.3908575 1.4397144 0.22787862 427
2.4492893 1.426839 0.22430959 431.60001
2.729449 1.3545769 0.21832882 383
2.1465964 1.5492969 0.22260857 351
2.7936656 1.1353252 0.36858878 377.66669
2.8810213 1.1334443 0.36880326 361.33334
2.4923639 1.2854577 0.36615425 438.77777
2.5508583 1.2395647 0.36952236 423
2.7805419 1.2659453 0.36578831 376.09091
2.8563855 1.33366 0.42670119 349
2.1991339 1.4206805 0.37077236 379.72729
2.3703279 1.4410274 0.38257903 440.66669
2.4625847 1.4046925 0.37880144 419.88889
2.7267063 1.3625269 0.37248915 392.33334
2.1578684 1.5542039 0.37814355 333.33334
2.7883 1.1408255 0.5360148 431
2.8875885 1.1253614 0.51012778 386.5
2.4763913 1.2977524 0.53456336 489.85718
2.5718238 1.2377232 0.5286988 453.66669
2.7509227 1.2560129 0.53879827 425.00003
2.8557844 1.3030601 0.50508916 371
2.191036 1.4390248 0.51547343 414.60001
2.3451641 1.4202547 0.5266096 499.88889
2.4834087 1.4014111 0.52545279 439.75
2.7246981 1.3680344 0.51210856 424
2.0974686 1.5904856 0.52537137 349
2.1740532 1.5653559 0.53319967 326
2.7900836 1.1467257 0.65983009 138
2.8955524 1.104331 0.6242528 417.66669
2.4467194 1.277248 0.63658285 487
2.5681915 1.2734332 0.64728773 479
2.8482478 1.2438092 0.60583878 403
2.9087045 1.3177944 0.6595422 307.33334
2.2040935 1.4554096 0.63021171 448.5
2.3202057 1.3820807 0.66341358 378
2.4925458 1.4322991 0.65229791 436.66669
2.7271085 1.4086814 0.67248797 342
2.1669545 1.5878849 0.63914168 351.66669
2.4454296 1.5331961 0.6563614 282
2.7725725 1.3211552 0.87398863 152
2.6729131 1.4159147 0.83435684 393
2.3473878 1.5346317 0.8355397 238
2.4349051 1.5465288 0.8492828 248
2.9112666 1.3131281 0.96935606 138
2.2895641 1.497779 1.0157481 222
2.4517798 1.4426774 1.0395969 208
2.6759648 1.4211807 0.94018209 410
2.7212653 1.4166319 1.0199258 296
