# .PCD v0.7 - Point Cloud Data file format
VERSION 0.7
FIELDS x y z intensity
SIZE 4 4 4 4
TYPE F F F F
COUNT 1 1 1 1
WIDTH 1
HEIGHT 69
VIEWPOINT 0 0 0 1 0 0 0
POINTS 69
DATA ascii
0.94681257 2.0915139 0.13501844 435
1.5589296 1.3334851 0.14400496 281
1.4412111 1.4321175 0.14844345 273
1.1651956 1.1930858 0.21584618 587.5
0.97026503 1.2975492 0.20493065 503
1.1279727 1.2802249 0.24127115 311.41177
1.2767559 1.2703059 0.27194616 290.33334
1.3951632 1.2580926 0.25321639 291.9231
1.5094701 1.2955998 0.19813702 311
1.0322902 1.3970271 0.22550403 476
1.32497 1.3824568 0.29124987 371
1.452152 1.401552 0.21173579 293.76926
1.5713992 1.3652552 0.22942498 271
1.1013356 1.5423784 0.21476167 719.5
1.1273999 1.3195977 0.33550856 287
1.2792552 1.2517346 0.37474272 284.39999
1.3936648 1.2426351 0.3817831 284.77777
1.1325901 1.3595552 0.35301793 290
1.4106877 1.4454583 0.35338235 287.66669
1.4327939 1.5086187 0.38170487 279
1.2646009 1.18476 0.53822011 298.33334
1.3969383 1.1879135 0.53367174 304.66669
1.2786863 1.2272704 0.52628481 306.36841
1.3670216 1.2150843 0.50061816 302
1.3220385 1.366272 0.56096804 316.33334
1.4011457 1.4548175 0.47265315 279
1.2523559 1.5378748 0.57768142 347
1.3119119 1.0033308 0.68857902 461.5
1.1667273 1.1820312 0.67734516 716.33337
1.2697086 1.1492072 0.68603081 508.09091
1.3803154 1.1605308 0.6640811 310.42859
1.1776034 1.2951105 0.70585477 575.28577
1.2703811 1.2659904 0.6614697 355.66669
1.2601016 1.4379348 0.66144884 403
1.2998959 1.5645101 0.67333442 361.25
1.2901442 1.0230598 0.83237946 526.71429
1.1757317 1.1640084 0.81372654 2980.25
1.2490311 1.1254438 0.81702423 1623.6364
1.3637277 1.1733375 0.8660078 463
1.1685814 1.2581909 0.81744766 1593.25
1.2240967 1.2157689 0.8374576 698.33337
1.4574816 1.272673 0.86421394 287
1.1684707 1.4827063 0.8500728 556
1.2567958 1.4439481 0.81955355 514.20001
1.1845717 1.5073267 0.78933346 467
1.2861888 1.5568936 0.84397042 289
1.3604193 1.6108695 0.83176869 261
1.2762233 1.0212843 0.96865094 644.60004
1.2619894 1.1275992 0.98147953 667.08337
1.1855271 1.2825003 0.9663955 624
1.2201958 1.2466555 0.97844505 645.83337
1.1713248 1.4892981 0.92081416 535
1.2727873 1.4432914 0.96914643 572
1.1903737 1.522051 0.98011303 507
1.2618072 1.5642374 0.95551729 284.33334
1.3390017 1.0449204 1.1047046 473
1.2750592 1.121511 1.1317543 756.23529
1.3652776 1.0729698 1.1479846 402.33334
1.1912804 1.2748547 1.1113062 1103.8
1.2231169 1.2450775 1.1185088 1084.2858
1.2709414 1.4306488 1.1082036 566.66669
1.2964277 1.1286864 1.2261779 651.66669
1.3980455 1.1113533 1.2638398 343.5
1.2774389 1.2723647 1.253601 919
1.3613303 1.2477229 1.3188066 467
1.3481246 1.3689309 1.3202765 281
1.4441813 1.2946116 1.4124771 321.77777
1.5392898 1.3111691 1.4443347 301.66669
1.4524415 1.395364 1.4582958 301.25
