# .PCD v0.7 - Point Cloud Data file format
VERSION 0.7
FIELDS x y z intensity
SIZE 4 4 4 4
TYPE F F F F
COUNT 1 1 1 1
WIDTH 1
HEIGHT 54
VIEWPOINT 0 0 0 1 0 0 0
POINTS 54
DATA ascii
7.2696033 0.57755625 0.092117757 240.33334
6.1394868 -0.5841983 0.072756261 255
6.2341704 -0.57037574 0.068313569 259
6.0709314 -0.4260762 0.076165676 249
6.1532459 -0.29148057 0.072393388 253
6.3590765 0.041513931 0.062777176 299
6.3257275 0.19186291 0.064312324 293
6.0657606 -0.56510448 0.2157892 278
6.2141623 -0.43913692 0.26275387 410
6.3783636 -0.43923619 0.20807321 496.5
6.0556431 -0.27727669 0.23216701 265.66669
6.1784978 -0.27836874 0.16322656 265
6.3755035 0.04159281 0.20861575 298.5
6.3668432 0.19302507 0.20887963 295.5
6.0626607 -0.57331824 0.37070382 241
6.1868391 -0.56719691 0.37108082 263
6.1466522 -0.41038859 0.37046528 267
6.1684003 -0.4423503 0.37062326 277
6.0748949 -0.28660625 0.36995101 245
6.3445458 -0.27932391 0.37084112 259
6.4133148 0.041821003 0.3708398 294
6.3983793 0.19384846 0.37089899 294
6.1690559 -0.57432175 0.48472372 249
6.1315384 -0.44610614 0.48325619 279
6.1686101 -0.40480149 0.48391867 271
6.3636756 -0.3077161 0.48797536 335
6.3902979 -0.27416125 0.48848408 408
6.4832606 -0.11985854 0.49030021 286
6.432766 0.041955784 0.48910442 296
6.4193172 0.19439104 0.48896784 297
6.333415 -0.61346471 0.61203086 372
6.4529743 -0.63231897 0.74872708 408
6.2148132 -0.45904154 0.60593188 275
6.4762297 -0.53288454 0.68337882 269
6.4178076 -0.352072 0.65719277 652.33337
6.3147025 -0.26358896 0.60928965 416
6.4886708 -0.26379469 0.74839312 404
6.4187579 -0.14041136 0.61342692 310
6.5122519 -0.11312521 0.61738598 360
6.4153404 0.018447876 0.6131593 315
6.4886055 0.03861187 0.68224639 289
6.4252119 0.19435456 0.61382151 305
6.5673184 -0.58045179 0.75549686 428
6.6174717 -0.50413036 0.8980273 267
6.522995 -0.38559657 0.84295863 310.66669
6.5503488 -0.15054616 0.75196695 302
6.488977 -0.50075555 1.0295166 416
6.5232639 -0.39890304 1.0321838 259
6.6516137 -0.35077643 1.0457072 261
6.5572915 -0.55630332 1.1861721 314
6.6368651 -0.39846119 1.1946799 260
6.3824401 -0.50552183 1.3100982 112
6.5107417 -0.35685518 1.3281235 112
6.440423 -0.17579533 1.3156519 124
