# .PCD v0.7 - Point Cloud Data file format
VERSION 0.7
FIELDS x y z intensity
SIZE 4 4 4 4
TYPE F F F F
COUNT 1 1 1 1
WIDTH 1
HEIGHT 58
VIEWPOINT 0 0 0 1 0 0 0
POINTS 58
DATA ascii
0.0070408881 -3.7757328 0.73093307 352
3.8634229 1.3085246 0.07482814 288.33334
3.714159 1.4615123 0.062673375 334.25
3.8437276 1.3679144 0.029245496 289
3.5904105 1.5883516 0.13556442 258
3.6679995 1.5770513 0.078181162 318
3.8052554 1.5724986 0.097812846 280
3.8154936 1.2778857 0.20916593 401
3.9061337 1.302282 0.2355907 414
3.7042565 1.4411317 0.21322346 416
3.8175123 1.4463128 0.21866643 356.66669
3.5892861 1.6061656 0.18859316 314
3.6887522 1.5928881 0.18409951 301.5
3.7647271 1.5671768 0.22042237 331.33334
3.793637 1.2630336 0.37149453 382.33334
3.710243 1.4296889 0.37373519 414
3.863025 1.4160093 0.35915133 384.80002
3.932426 1.4273486 0.37483892 332.5
3.7576771 1.5675039 0.30510333 372
3.7453356 1.2612284 0.55500054 401
3.8239174 1.2535652 0.55858386 423
3.724941 1.4215266 0.55891931 329.5
3.8828411 1.4011698 0.52488744 416
3.6971586 1.2245989 0.67013931 311
3.802753 1.3455423 0.68346137 301
3.7186167 1.3838661 0.67861331 289
3.8496413 1.3872187 0.60448807 240
3.7953389 1.600603 0.69471037 301
3.9494545 1.6221129 0.70739818 292
4.0099282 1.6942348 0.62519479 293
3.6892805 1.1872044 0.83597422 2675
3.5954351 1.348634 0.83405375 3325
3.6905513 1.273218 0.79780042 1502
3.7855363 1.2261956 0.7622689 311
3.6820946 1.3616767 0.78759503 862.33337
3.7347007 1.5152881 0.86147571 358
3.8363094 1.62453 0.83460099 368
3.5660591 1.3255126 1.0023457 397
3.682302 1.3033605 0.99033141 322.33334
3.7794263 1.2571903 0.96389657 330.5
3.7737284 1.3912024 0.99572676 338
3.8571315 1.6010398 0.97642952 307
3.5820577 1.3234606 1.140447 352
3.6930194 1.2699492 1.1111233 315
3.7794247 1.2017453 1.1221848 351
3.7400723 1.3828404 1.1298764 319
3.8148155 1.5346787 1.1094263 310
3.689117 1.2674766 1.2033262 323
3.8156447 1.2761199 1.3288494 322
3.7141268 1.367426 1.3140424 311
3.8839197 1.443589 1.2619458 253
3.811327 1.5237708 1.2548352 239
3.910044 1.1476717 1.4389856 289
3.8420265 1.2673485 1.4331253 317.25
3.7881684 1.3908228 1.4327418 295
3.8202233 1.193079 1.5172212 307
3.8565083 1.3256766 1.5430729 266
3.7535267 1.3711991 1.5191613 307
