# .PCD v0.7 - Point Cloud Data file format
VERSION 0.7
FIELDS x y z intensity
SIZE 4 4 4 4
TYPE F F F F
COUNT 1 1 1 1
WIDTH 1
HEIGHT 97
VIEWPOINT 0 0 0 1 0 0 0
POINTS 97
DATA ascii
3.2469311 1.6121511 0.064977542 309.66669
3.3732169 1.5936486 0.07474295 334.75
3.4866188 1.5427741 0.085069768 293.83334
3.1242173 1.7250812 0.07934463 327
3.2114513 1.7044846 0.076185584 310.71429
3.3644929 1.6957676 0.043504268 292
3.2671738 1.8684366 0.085323319 319.66669
3.3098092 1.897354 0.080891848 310
3.426549 1.9790936 0.011666149 249
3.4989641 2.0866714 0.040090084 1411
3.199903 1.5987592 0.20771691 315
3.358321 1.5909138 0.2352713 303.66669
3.5164967 1.5534713 0.22021401 252
3.06604 1.7022597 0.23720509 338
3.1858776 1.702402 0.20797189 314.5
3.2274084 1.8994722 0.2040007 315
3.1676052 1.9788535 0.25986135 317
3.59656 1.3994292 0.3718453 356
3.2507577 1.5951989 0.39758986 331.16669
3.3662477 1.581725 0.35410118 297
3.5475481 1.5641066 0.3890326 253.8
3.0639045 1.7129101 0.3379935 330.33334
3.1954288 1.7053171 0.38653988 314.75
3.3650768 1.6656286 0.31249911 259
3.1370895 1.9455059 0.38208711 315
3.1915989 1.8769339 0.36557668 309
3.1358271 1.9509448 0.3193711 307
3.4135909 1.4966596 0.54770207 290.5
3.5579584 1.3935044 0.58815283 348
3.6086993 1.4509429 0.55493236 355
3.2871418 1.6066478 0.5100674 231
3.3330162 1.5790309 0.54723394 282
3.5308259 1.5570511 0.55460441 286
3.2328227 1.7197433 0.53991044 313.25
3.324295 1.7632474 0.59179771 269
3.5084677 1.6763686 0.5972681 313
3.5555034 1.4212608 0.69506073 328
3.4835172 1.5482224 0.68901479 317.5
3.3198912 1.7225507 0.6666553 327
3.496434 1.7215189 0.67917794 356
3.4023285 1.9105287 0.64390504 360.5
3.569356 1.9081401 0.69522488 398
3.4682453 1.9703264 0.6920898 263
3.5972428 1.4950888 0.84388721 396
3.6424961 1.4754303 0.80480409 346.5
3.5542738 1.5892681 0.80272603 323
3.3924572 1.7424089 0.83897865 395.5
3.5270493 1.7123829 0.80879527 325
3.6472092 1.7231808 0.82162112 312
3.4019332 1.8176255 0.84624255 313
3.5051475 1.8724355 0.7741248 265
3.6445742 1.8990988 0.78850186 255
3.6272967 1.5961938 0.98996031 270
3.5490606 1.7079724 1.0342472 283
3.6348238 1.7034883 1.0005339 270
3.6912289 1.3626212 1.1188314 126
3.5351462 1.6943144 1.1234344 305
3.604418 1.6512398 1.1311961 307
3.4077823 2.2051976 1.165885 100
3.5807693 2.1954441 1.1929431 326
4.2309971 2.2075191 1.1913723 764
3.4129739 2.2981439 1.1798264 216
4.1304207 2.3196082 1.188338 775
3.3752551 1.3132015 1.2281514 180
3.095989 1.4497662 1.2637779 284
3.4172864 1.4333341 1.2974317 243
3.5884118 1.4322799 1.2917758 348
3.7567554 1.4806771 1.2388265 394
3.1850519 1.5343797 1.2983332 124
3.3654642 1.513238 1.3401709 316
3.6686249 1.5980508 1.2813079 364
3.7839961 1.5133842 1.2479976 254
3.6402662 1.7422394 1.2446011 301
3.8460605 1.7529343 1.2877007 357.5
3.9250863 1.9136592 1.2177033 247
3.6038225 2.0735266 1.2813115 158
3.7956083 2.0283759 1.2703387 317.60001
3.9909244 1.9516193 1.3411578 846
3.2914784 2.2122085 1.2440368 208
3.3128145 2.1413605 1.2368382 250
3.5571461 2.2079763 1.2921337 363.33334
3.6619785 2.1571469 1.2353745 282.66669
3.8959103 2.1548843 1.2410492 271
4.1532555 2.1536531 1.2857091 732
3.2770624 1.4661698 1.3987889 224
3.21102 1.5543031 1.3947972 246
3.793484 1.6156495 1.3613224 318
3.8848877 1.7763174 1.4025452 285
3.5651278 1.890399 1.4127862 254
3.7105894 1.8670031 1.3757191 347.5
3.795542 1.8777361 1.3961251 341.5
3.3949165 2.0343521 1.4299225 350
3.4564912 1.9903018 1.4366895 172
3.6895397 2.0175025 1.3928125 408
4.0469699 2.0869555 1.369544 788
3.4137089 2.1803732 1.3604038 184
3.5275273 2.1282723 1.3754512 294
