# .PCD v0.7 - Point Cloud Data file format
VERSION 0.7
FIELDS x y z intensity
SIZE 4 4 4 4
TYPE F F F F
COUNT 1 1 1 1
WIDTH 1
HEIGHT 56
VIEWPOINT 0 0 0 1 0 0 0
POINTS 56
DATA ascii
6.1907029 -0.5838027 0.070343971 249
6.1234102 -0.43429708 0.073684186 265
6.1369119 -0.27769038 0.073172361 239
6.718605 -0.2834785 0.045738459 330
6.7399521 -0.13047285 0.14546439 243
6.349123 0.035280675 0.063247129 295
6.328568 0.19631362 0.064176261 289
6.0696588 -0.57144123 0.21568006 280.5
6.2121243 -0.42581484 0.26276535 402
6.3217754 -0.43445233 0.26115668 259
6.1014128 -0.26595432 0.21472892 255.5
6.6460829 -0.12505192 0.25610307 394
6.7579074 -0.13427134 0.25445899 414
6.3822894 0.035444729 0.20845176 297.5
6.3684502 0.19746453 0.2087532 298.5
6.0811687 -0.57921839 0.370785 245
6.1552181 -0.57213324 0.37099683 241
6.1817904 -0.42378551 0.37061667 280
6.0714645 -0.27473715 0.36991811 233
6.4000931 -0.26834267 0.37100899 271
6.6784348 -0.13995709 0.37179053 334
6.7818546 -0.12011514 0.37212551 241
6.4113569 0.035613891 0.37083161 293
6.4012532 0.19835371 0.37091345 296
6.1779308 -0.58119142 0.48495924 253
6.1345015 -0.43334439 0.48326856 277
6.1732917 -0.40956393 0.48404229 269
6.2893891 -0.29183218 0.4862594 947
6.3888893 -0.26059765 0.48841888 386
6.8735733 -0.15174764 0.49914289 277
6.5294709 -0.10816001 0.49133065 342
6.4258108 0.035679713 0.48894498 301
6.4122086 0.19857709 0.48881367 296
6.3270273 -0.61702883 0.61178756 350
6.4927773 -0.53179008 0.68406159 274
6.2168069 -0.44603282 0.60594082 271
6.4312353 -0.36631507 0.67989242 348
6.4986148 -0.30897602 0.61731255 289
6.3703842 -0.2489652 0.67598844 300.5
6.3067079 -0.14559925 0.60864043 346
6.5374408 -0.10098492 0.61844838 342
6.3893766 0.013685872 0.61204648 401
6.4896488 0.032368191 0.68225622 287
6.4299955 0.20247421 0.67922258 219.5
6.4523916 0.22055347 0.6150465 293
6.5071373 -0.642178 0.75226331 428
6.5542994 -0.53612363 0.82406473 336.5
6.5236812 -0.38462076 0.84286994 371
6.5371809 -0.15827428 0.75114357 292
6.5326824 -0.49043691 1.034135 257
6.5408168 -0.40477765 1.0341423 279
6.5650349 -0.49986091 1.1864035 251
6.6138067 -0.56984305 1.193815 368
6.4810333 -0.49996957 1.3253711 220
6.5923386 -0.34882674 1.3407761 274
6.5547462 -0.1871222 1.3335881 184
