# .PCD v0.7 - Point Cloud Data file format
VERSION 0.7
FIELDS x y z intensity
SIZE 4 4 4 4
TYPE F F F F
COUNT 1 1 1 1
WIDTH 1
HEIGHT 50
VIEWPOINT 0 0 0 1 0 0 0
POINTS 50
DATA ascii
6.4010749 -0.61855501 0.06038931 360
6.2289987 -0.5719887 0.068555146 233
6.1215787 -0.43197861 0.073772758 281
6.1716762 -0.28266543 0.071529955 257
6.3306322 0.03669294 0.064119205 515
6.3355722 0.19626071 0.063846037 301
6.0640936 -0.57232207 0.23228356 277.66669
6.1603675 -0.57197946 0.16385043 273
6.0831165 -0.41767582 0.16626212 285
6.2399864 -0.42869425 0.26235756 328.5
6.0813632 -0.26667511 0.21511811 267
6.3797808 0.036910925 0.20851845 303.5
6.3727083 0.19730932 0.20868188 292
6.1092315 -0.57997143 0.3708778 420
6.1801009 -0.57455218 0.37108558 432
6.1365237 -0.41188338 0.37043574 265
6.1651397 -0.43223432 0.37058455 269
6.0844498 -0.27535209 0.36996269 249
6.2960439 -0.26720023 0.37065804 249
6.39185 0.036960803 0.37076572 305
6.3967614 0.19790345 0.37089792 291
6.2039099 -0.5826332 0.48554644 332.5
6.13028 -0.4361957 0.48318589 269
6.1525002 -0.40590861 0.48356152 271
6.2434554 -0.2896052 0.4852196 251
6.3457918 -0.26220658 0.4874523 410
6.3823175 0.036977805 0.48796359 826
6.4212027 0.19857192 0.48901686 298
6.3819079 -0.62049514 0.61414289 408
6.3834949 -0.46857744 0.74287605 633
6.4762821 -0.58426142 0.68377507 335.5
6.2175627 -0.4492918 0.6059919 279
6.3394728 -0.41147396 0.61098039 249
6.4833717 -0.36455441 0.7485733 265
6.2691083 -0.29759112 0.60746276 374
6.4903927 -0.224061 0.70448631 308
6.4485369 -0.14902 0.61471701 231
6.341413 0.016483193 0.60999322 1729
6.4736733 0.033793837 0.6813401 297
6.4418559 0.17506346 0.61448359 301
6.4642668 0.22394426 0.61556375 299
6.5428128 -0.48769218 0.89148223 257
6.3902774 -0.40013897 0.87766504 396
6.5035858 -0.32315809 0.88683999 233
6.4501638 -0.48727643 1.0251577 247
6.5246849 -0.36605191 1.0320644 351.5
6.5575762 -0.6656304 1.1879766 168
6.5387669 -0.56310248 1.1838338 254
6.6131897 -0.50706446 1.1928467 340
6.5516257 -0.39551258 1.1833965 260
