# .PCD v0.7 - Point Cloud Data file format
VERSION 0.7
FIELDS x y z intensity
SIZE 4 4 4 4
TYPE F F F F
COUNT 1 1 1 1
WIDTH 1
HEIGHT 50
VIEWPOINT 0 0 0 1 0 0 0
POINTS 50
DATA ascii
6.1574073 -0.28821194 0.072199285 265
6.2483521 0.0030574652 0.068002015 1729
6.3511143 0.038872048 0.063153118 293
6.3243856 0.18632509 0.064377651 291
6.0704718 -0.58887744 0.23210269 269
6.1721349 -0.58512557 0.16348135 261
6.0615354 -0.4250415 0.16694583 292
6.231843 -0.43730548 0.26248991 334.5
6.0851908 -0.27047706 0.21508615 272.5
6.2959814 0.010045736 0.15949678 867
6.3374968 0.02455854 0.22638083 327.66669
6.3772578 0.18778753 0.20860483 293
6.2937312 -0.60424691 0.37155956 261
6.1478486 -0.59575212 0.37106046 422
6.142664 -0.42419016 0.3704887 273
6.1766477 -0.43933702 0.37064201 277
6.0863943 -0.2765612 0.36997133 257
6.3763909 -0.21414302 0.37086141 268.5
6.3504281 0.020970982 0.37062234 488
6.4045668 0.18844658 0.37091294 299
6.1268172 -0.60006523 0.48392594 360
6.2571292 -0.59320509 0.48679098 312
6.140244 -0.43002939 0.48338437 276
6.3159223 -0.28078008 0.48682776 320.5
6.3634028 0.021087326 0.48753214 1029
6.4245148 0.18894073 0.48907393 298
6.3567967 -0.63030452 0.61315465 376
6.5004659 -0.60962409 0.61909199 261
6.2041364 -0.45455921 0.60545063 281
6.4148364 -0.47748083 0.74493933 311
6.4524531 -0.59729779 0.74835372 394
6.4452748 -0.43111333 0.61559558 299
6.4862056 -0.31650981 0.74847698 277
6.2810245 -0.29933539 0.6079787 386
6.4061046 -0.1667963 0.61293614 376
6.4926538 -0.22204964 0.68250215 329.5
6.4104462 -0.0033257594 0.74283946 331
6.3264484 0.0036939057 0.60935068 1777
6.4671979 0.038906265 0.61538726 297
6.4389019 0.18926692 0.61439222 292
6.5403085 -0.4941276 0.89132845 259
6.3636136 -0.4106755 0.8754642 390
6.5463314 -0.37857801 0.82175481 265
6.5237207 -0.26164722 0.75062358 245
6.4625292 -0.49479532 1.0265828 251
6.4776545 -0.41084483 1.0273461 259
6.5828362 -0.68109477 1.1915702 148
6.5281272 -0.58140904 1.1827115 248
6.6215448 -0.51444006 1.1940466 460
6.606216 -0.41169423 1.1907749 318
