# .PCD v0.7 - Point Cloud Data file format
VERSION 0.7
FIELDS x y z intensity
SIZE 4 4 4 4
TYPE F F F F
COUNT 1 1 1 1
WIDTH 1
HEIGHT 68
VIEWPOINT 0 0 0 1 0 0 0
POINTS 68
DATA ascii
2.5909064 3.0574627 0.073582545 295
2.4970448 3.1992249 0.094139442 287
2.0559602 3.4171748 0.018090963 291
2.0206869 3.5786185 0.129354 299
2.1446311 3.4736011 0.083130732 308.33334
2.3838472 3.5369058 0.087476581 1067
2.4389441 3.5794673 0.037800685 305
2.3780549 3.6003246 0.10956776 309
2.6330309 3.0839787 0.22021434 303.66669
2.4877584 3.1991661 0.22499582 307
2.583096 3.1624641 0.25021863 311
2.019341 3.5859809 0.20937879 295
2.1835878 3.5068951 0.2339143 301.66669
2.4135728 3.4955363 0.22483771 1803
2.039171 3.6361275 0.29952359 287
2.3362005 3.6477556 0.22562644 514
2.4121473 3.6770661 0.28734592 299
2.6214056 3.7809124 0.28070086 231
2.6339946 3.1179693 0.36885381 307
2.5033193 3.2313263 0.34977317 313
2.6876485 3.2957132 0.42067686 293
2.5047946 3.4124851 0.38984227 360
2.616158 3.3067722 0.42189288 360
2.1928506 3.5547314 0.41147682 284.33334
2.4460011 3.5162625 0.39322078 1691
2.0505271 3.6653819 0.36800832 277
2.2766266 3.666317 0.40029281 1598
2.4362383 3.7266922 0.39865837 294
2.7908263 3.6265883 0.38966548 334.5
2.2343376 3.7856789 0.36541972 794
2.6225014 3.7909615 0.39640337 263
2.1617854 3.900317 0.44783935 358
2.6569715 3.2424803 0.49672794 382
2.7585642 3.2046239 0.49502608 979
2.8598874 3.3234401 0.58585811 243
2.4760957 3.5378571 0.55340141 1704
2.6653817 3.4773297 0.55061769 361.5
2.8231342 3.4918685 0.56653881 296
2.2810915 3.682188 0.51912951 1681
2.4389689 3.7390678 0.52094388 281
2.5985191 3.6594808 0.51636559 292
2.7932324 3.6106813 0.51353288 261
2.3176298 3.8006563 0.52478814 358.5
2.2241929 4.0347486 0.53735662 241
2.9068015 3.3716681 0.68012196 420
2.4998622 3.5551403 0.68584675 1735
2.6067193 3.5840271 0.69023085 1069
2.8152981 3.5664625 0.64686251 289
2.8578227 3.4901285 0.68814421 247
2.2913661 3.705812 0.60588622 1401
2.6519115 3.6489966 0.60406297 235
2.75529 3.6143878 0.69573879 269
2.3167021 3.8255115 0.65967214 483
2.4494195 3.8135915 0.64499229 308
2.6198702 3.7992437 0.61359692 235
2.3307548 3.9046562 0.71311212 241
2.4687181 3.933212 0.71731842 259
2.8042572 3.405401 0.77372253 1095
2.946913 3.4107041 0.77974772 285
2.6808977 3.5101883 0.7795918 1501
2.9399519 3.4802549 0.88665098 273
2.6276832 3.6809511 0.79502839 294
2.3410754 3.9070513 0.81099248 297
2.9912457 3.4419856 0.9886812 293
2.8015678 3.6898859 0.90406466 265
2.7218375 3.7689476 0.90989995 247
2.3838606 3.9701095 0.92182159 285
2.9581556 3.3812952 1.1366186 293
