# .PCD v0.7 - Point Cloud Data file format
VERSION 0.7
FIELDS x y z intensity
SIZE 4 4 4 4
TYPE F F F F
COUNT 1 1 1 1
WIDTH 1
HEIGHT 55
VIEWPOINT 0 0 0 1 0 0 0
POINTS 55
DATA ascii
7.2569733 0.58093858 0.092745684 355.66669
6.2435126 -0.59802616 0.067838103 434
6.3029232 -0.58589363 0.065055102 398
6.1599312 -0.44155413 0.071955711 281
6.1423826 -0.28868252 0.072907448 259
6.2992392 0.026229562 0.065600961 321
6.3490782 0.044490386 0.063248664 303
6.3373027 0.18898135 0.063767463 298
6.0558825 -0.57068741 0.23243031 279.66669
6.1597261 -0.57855618 0.16387224 263
6.0746326 -0.4241347 0.1665315 284
6.2080507 -0.43361068 0.26283643 240
6.057817 -0.27367574 0.23214851 277
6.1538529 -0.27042022 0.16400485 269
6.3680425 0.035556585 0.20875022 303
6.3634491 0.18966699 0.20891917 300.5
6.104744 -0.57442433 0.37084338 419
6.1657763 -0.43028319 0.37058163 275
6.0842099 -0.28036565 0.36997086 249
6.3406563 -0.27681372 0.37082377 263
6.3758488 0.035646647 0.37071151 324
6.4009919 0.19067995 0.37090361 298
6.1442637 -0.59651464 0.48429418 404
6.2265162 -0.5671441 0.48596546 269
6.1386871 -0.44438964 0.48340905 283
6.1729755 -0.41408554 0.48405302 277
6.2342167 -0.29430905 0.48502469 251
6.3304768 -0.26915586 0.48712468 392
6.3194375 0.016239289 0.48653847 1643
6.453177 0.055382866 0.48956981 295
6.422935 0.19123141 0.48904279 295
6.3444419 -0.62350112 0.61257696 394
6.2129965 -0.45661324 0.60584009 275
6.392837 -0.47719416 0.74353617 319
6.50773 -0.58624208 0.6192286 267
6.3507929 -0.36342093 0.6112479 342.5
6.4560924 -0.31912768 0.74656749 287
6.4465132 -0.15125723 0.74532866 390
6.4874835 -0.26873931 0.6166932 267
6.4047017 -0.14326434 0.61283028 396
6.3774319 0.005786858 0.67656451 1092
6.4700007 0.062654197 0.61552227 287
6.4370751 0.16725108 0.61426246 295
6.4615269 0.21668066 0.61542666 293
6.520298 -0.53666693 0.82138544 325.5
6.3729153 -0.40599826 0.87622356 360
6.5215273 -0.37652507 0.8197841 246
6.5176868 -0.26263189 0.75024199 251
6.4326849 -0.49385434 1.0233386 241
6.5183539 -0.37196413 1.0314279 339.5
6.3720899 -0.70993215 1.1644356 188
6.5321932 -0.6699211 1.1847172 112
6.4973164 -0.53031409 1.1779048 239
6.610527 -0.40648785 1.191288 302
6.3323765 -0.65505189 1.305028 172
