# .PCD v0.7 - Point Cloud Data file format
VERSION 0.7
FIELDS x y z intensity
SIZE 4 4 4 4
TYPE F F F F
COUNT 1 1 1 1
WIDTH 1
HEIGHT 51
VIEWPOINT 0 0 0 1 0 0 0
POINTS 51
DATA ascii
6.2025681 -0.58569777 0.069782689 249
6.1091666 -0.43726084 0.074352652 285
6.1530204 -0.29599759 0.072401047 261
6.3481317 0.035100203 0.063293979 303
6.3498859 0.18622674 0.063175187 296
6.0785475 -0.57298899 0.21544574 276.5
6.4003291 -0.45168927 0.15623778 756
6.0834117 -0.42744732 0.16625451 299
6.2611656 -0.44070718 0.26206136 333.5
6.0508766 -0.27927503 0.23227856 268.33334
6.1646266 -0.2754485 0.16366479 265
6.3832898 0.035245672 0.20840321 296.5
6.3707891 0.18675013 0.20877129 290
6.088264 -0.57343078 0.37078676 424
6.1301017 -0.41763932 0.37042975 267
6.1840138 -0.44807988 0.37069064 277
6.0650158 -0.2838923 0.36991298 245
6.3053727 -0.28215849 0.37071475 267
6.4103537 0.035372745 0.37082836 294
6.3955827 0.18737143 0.37088189 303
6.2109385 -0.60293663 0.48581648 249
6.1795778 -0.5643878 0.48490328 279
6.1062746 -0.44867992 0.4827013 275
6.1740093 -0.41364104 0.48407441 277
6.33284 -0.30383113 0.48727056 291
6.4550014 -0.28180689 0.48996031 251
6.4883041 -0.11757344 0.49041152 328
6.3918128 0.035325281 0.48817801 524
6.4180222 0.18795353 0.48892707 296
6.2788825 -0.61642593 0.60974038 368
6.4461288 -0.64032239 0.74837327 328
6.2035027 -0.46273729 0.60547221 265
6.4826255 -0.55172849 0.70574397 314.66669
6.4193726 -0.37285548 0.6791082 520
6.4651766 -0.31741977 0.61591661 269
6.3394508 -0.26932299 0.61036706 235
6.4959006 -0.21151283 0.748685 357
6.3916759 -0.14471827 0.61227536 306
6.480329 -0.1101691 0.61601532 380
6.3434253 0.010207437 0.61007833 1569
6.4691811 0.032137752 0.68087411 301
6.4378958 0.18845648 0.6143496 293
6.5753727 -0.50563675 0.89443886 259
6.5196581 -0.39043796 0.84282941 253
6.4529204 -0.50260526 1.0256318 251
6.4413052 -0.33685285 1.0227615 378
6.4968934 -0.40614793 1.0293893 261
6.57162 -0.56302392 1.1881585 310
6.562088 -0.40280008 1.1848546 64
6.6572299 -0.25310177 1.1961312 256
6.6121516 -0.082986958 1.1894187 330
