# .PCD v0.7 - Point Cloud Data file format
VERSION 0.7
FIELDS x y z intensity
SIZE 4 4 4 4
TYPE F F F F
COUNT 1 1 1 1
WIDTH 1
HEIGHT 70
VIEWPOINT 0 0 0 1 0 0 0
POINTS 70
DATA ascii
4.7035894 -2.6428583 0.094228864 278
4.850687 -2.2710457 0.090050042 266
4.9262414 -2.1556664 0.12412879 414
5.000061 -2.1858971 0.070499629 327.33334
5.3568034 -2.1779025 0.024390757 354
4.9181066 -2.0326986 0.08865726 269
5.3699794 -2.0655749 0.024795979 296
5.0739479 -1.9009573 0.081379727 309
5.0582004 -1.7801127 0.082950912 476
4.6925249 -2.7714787 0.21209753 329
4.6413727 -2.5888457 0.25631714 263
4.8272228 -2.4095695 0.20736255 295
4.6454229 -2.2969923 0.29646438 273
4.6718674 -2.3126369 0.25423583 291.5
4.7646761 -2.2128029 0.25142232 260
4.8189483 -2.11116 0.20730822 269
5.0535412 -2.1953516 0.24443357 296
5.1649432 -2.1287341 0.19631448 698
5.3352804 -2.1829607 0.23718676 416
4.7442083 -2.0814495 0.29296941 285
4.8750467 -1.9950746 0.29013878 402
5.393374 -2.0508049 0.28214931 410
5.4527607 -2.0828357 0.18711971 263
5.1198015 -1.9299215 0.24174632 309
5.0468302 -1.7612778 0.24276367 1289
4.5967941 -2.7191734 0.3478899 343.5
4.6818495 -2.5997126 0.3914865 269
4.8711605 -2.4159255 0.38789016 265
4.7462134 -2.3548913 0.38694081 261
4.7748098 -2.205848 0.38439721 406
5.1069665 -2.2075016 0.38435817 295
4.7543225 -2.0910511 0.38255051 255
4.8688951 -1.9847647 0.38093525 271
4.9727125 -2.0344203 0.38170555 396
5.1702275 -1.9579479 0.3807103 295
5.381649 -2.0378988 0.38197255 340
5.0830407 -1.7634432 0.37802777 1715
4.6236763 -2.7435229 0.49313486 216
4.6590796 -2.5730405 0.54014355 273
4.9016857 -2.4146345 0.59386611 368
4.7446046 -2.3545785 0.51825839 254.33334
4.9602556 -2.2840214 0.53859049 372
4.8807087 -2.1573462 0.53274667 271.5
5.131216 -2.205936 0.5409413 295
4.8572092 -1.9681339 0.5272792 263
5.0296655 -2.0666213 0.53425193 369
5.1833706 -1.97098 0.53616536 289
5.0962906 -1.7607454 0.47655061 1495
5.1460519 -1.771207 0.58279091 953
4.7969966 -2.8626533 0.72105145 212
4.6916413 -2.7912495 0.60147095 302
4.9401388 -2.7235401 0.7210722 289
4.8932581 -2.4470763 0.70545584 231
5.0094714 -2.4618666 0.71225989 414
5.1505599 -2.3634264 0.71547967 273
5.0532074 -2.2455249 0.70519829 320
5.1780248 -2.1762779 0.70926487 293
5.1553793 -2.0252075 0.70216322 292
5.2019458 -1.7836961 0.69622767 347
4.9155273 -2.6996419 0.83686256 269
4.9545865 -2.4843614 0.82704729 273
5.1385255 -2.3487015 0.8331027 416
5.1882153 -2.1481178 0.82675087 235
5.1097779 -2.0559361 0.8163898 297
4.9279118 -2.6971927 0.96065557 334
5.0384102 -2.5336456 0.95931089 360
5.1411796 -2.0608969 0.93991399 402
4.8782649 -2.658864 1.0788594 394
4.9850636 -2.5099936 1.0786902 348
5.1649823 -2.0625229 1.0674582 239
