# .PCD v0.7 - Point Cloud Data file format
VERSION 0.7
FIELDS x y z intensity
SIZE 4 4 4 4
TYPE F F F F
COUNT 1 1 1 1
WIDTH 1
HEIGHT 79
VIEWPOINT 0 0 0 1 0 0 0
POINTS 79
DATA ascii
6.591908 -1.9280336 0.11725622 164
4.9124079 -0.66918021 0.059767246 1929
4.9645758 -0.61092842 0.054980636 313
4.949863 -0.48609483 0.054311574 329
4.9524508 -0.55405468 0.055025518 313
4.7558966 -0.3485564 0.066947699 443
4.9711967 -0.43112716 0.052111566 317
4.629334 -0.28594735 0.075608194 313
4.6735387 -0.23014307 0.072004676 317
4.6656079 0.28134695 0.072937965 317
4.576355 0.35945845 0.080126345 239.5
4.9346156 -0.66396904 0.16506815 1903
4.9845762 -0.63260579 0.23565541 673
5.0081081 -0.52291358 0.21440007 313.5
4.9091229 -0.36424398 0.16163993 511
4.9832678 -0.40549895 0.2315443 585.66669
4.6407018 -0.28040546 0.17421269 335
4.6757679 -0.24962533 0.24064341 316.33334
4.8403034 -0.16877367 0.26972944 293
4.9710302 -0.055665117 0.26580882 287
4.9608927 0.066506542 0.26610047 295
4.6484747 0.2840637 0.17385817 311
4.6750011 0.28954107 0.27516621 319
4.8427935 0.18216392 0.26974905 299
4.6426964 0.32987875 0.22555059 319
4.9988976 -0.63970566 0.38483167 737
5.0289574 -0.52164602 0.38195735 316
4.9531369 -0.39136073 0.37983951 1707
4.725431 -0.25918636 0.37880132 287
5.028964 -0.16952604 0.37707138 289
4.8840432 -0.1337873 0.377276 297
4.9713335 -0.033154659 0.37668532 305
4.931829 0.10368786 0.37698996 299
4.986433 0.071911588 0.37671906 299
4.7779951 0.25629106 0.37863985 280
5.030025 0.19415657 0.37724823 355
4.6781888 0.32274792 0.37974811 321
5.0436482 -0.64276147 0.50021279 359
5.0211048 -0.51835859 0.49651459 315
4.9766102 -0.3915011 0.49298951 1660
4.8607869 -0.25643566 0.4885698 267
5.2080045 -0.23239368 0.4956288 426.5
4.9097552 -0.043945082 0.48810095 2533
5.0238295 -0.082697384 0.49070567 320
4.9776125 0.087875336 0.48967025 832
5.0697327 0.20029101 0.4923408 1293
5.1697416 0.2245277 0.49466312 285
5.04461 0.34252045 0.49356145 561
5.0652046 -0.64159709 0.65782249 320.33334
5.1442738 -0.64994234 0.74204028 301
5.0584612 -0.51868057 0.65360636 294.33334
5.1114354 -0.524279 0.73577082 293
5.0495529 -0.39570594 0.6110369 368
5.1179934 -0.39941332 0.73304605 289
5.0548887 -0.15196946 0.72488385 355
5.1600657 -0.19497928 0.65278977 392.66669
5.25811 -0.16477653 0.61720991 243
4.946104 -0.026368424 0.60239887 2025
5.0198603 -0.035123568 0.68299884 959.66669
5.035902 0.08826042 0.66498125 837.5
5.0203428 0.20380229 0.66480064 294
5.1338158 0.21414319 0.67114639 306
5.158649 -0.65444165 0.86417466 301
5.1193719 -0.52577621 0.8559981 285
5.1401992 -0.40453339 0.85453689 301
5.1572723 -0.15486205 0.85193658 292
5.0038199 -0.036965959 0.83677506 1887
5.1830807 -0.029491441 0.85367566 267
5.0291204 0.082655996 0.83933145 1643
5.2170663 0.096009232 0.85713083 295
5.1022072 0.20211758 0.84726036 299
5.2033353 -0.16700433 0.97749889 428
5.0790653 -0.023401421 0.96183473 283
5.2010641 -0.043772448 0.97638488 263
5.1857095 0.079518229 0.97470319 295
5.0531731 -0.032725584 1.1328979 285
5.015461 0.065609604 1.1847562 283
5.1166391 0.088255033 1.0847421 295.5
5.0606408 0.060688451 1.3070397 406
