# .PCD v0.7 - Point Cloud Data file format
VERSION 0.7
FIELDS x y z intensity
SIZE 4 4 4 4
TYPE F F F F
COUNT 1 1 1 1
WIDTH 1
HEIGHT 52
VIEWPOINT 0 0 0 1 0 0 0
POINTS 52
DATA ascii
3.6307175 0.2967037 0.1111058 282
3.5525341 0.37762928 0.082305752 414.33334
3.6188574 0.43573537 0.0046551228 283
3.5733159 0.45672765 0.081285864 395
3.6421862 0.46419016 0.0022303462 315
3.9575241 -0.20889369 0.24210604 985.40002
3.9806368 -0.070526116 0.25521195 429.57144
3.961514 0.056669038 0.26422089 1388
3.9046926 0.22683781 0.29511827 366
3.5690308 0.36749083 0.18400526 379.39999
3.642149 0.36162519 0.22536562 341
3.6186261 0.46587974 0.19010901 403
3.9682851 -0.22214702 0.38078719 1274
4.0002875 -0.080795012 0.37964231 397.5
4.0059519 0.062553272 0.37949896 469.5
3.8797734 0.22835705 0.38113654 379
3.9104593 0.26359564 0.38149267 291
3.5962272 0.32339948 0.30471051 383
3.6761446 0.36760578 0.34948578 340.42859
3.6603317 0.49270248 0.34683943 391.5
4.0096879 -0.2231307 0.51608175 1135.5
4.0205355 -0.087419398 0.50865549 377.57144
4.0629363 -0.033967122 0.56230563 375
3.9553638 0.14375964 0.51332557 836
4.0962429 0.063625209 0.50212741 263.66669
3.8807828 0.25348192 0.51224434 351
3.9514956 0.20066588 0.51398849 644
3.7012768 0.3671599 0.46681637 343
3.8501644 0.35986218 0.4987472 1555.6667
3.9344804 0.4013966 0.56180298 312.33334
3.7245872 0.51019132 0.4711197 319
4.0336194 -0.22298951 0.65466779 515
4.0564361 -0.22344941 0.74926549 493
4.0487356 -0.1236892 0.65449721 373
4.0591516 -0.081866711 0.67823416 373
4.0941505 0.063073069 0.65726745 325.5
4.0126362 0.20215017 0.69887155 346.25
3.9908123 0.37836733 0.67331231 316.20001
4.1437125 -0.062329642 0.8036449 296
3.963953 0.14728348 0.8301667 2491
4.1305361 0.063160889 0.80178195 286.5
3.9766202 0.19930953 0.83252645 1573
4.0654097 0.25548419 0.84404361 315
4.0130091 0.36384702 0.81751132 694.5
4.0646667 0.43535739 0.7554276 293
4.1473112 0.46352965 0.81250215 273
4.0603585 0.14621595 0.93408346 319
4.0158687 0.24873254 0.98991603 402.33334
4.0965652 0.20393941 0.94024861 324
4.1208506 0.36263883 0.97903037 300.33334
3.9727745 0.22598846 1.1364154 349.80002
3.9986897 0.31031364 1.1088033 315
