# .PCD v0.7 - Point Cloud Data file format
VERSION 0.7
FIELDS x y z intensity
SIZE 4 4 4 4
TYPE F F F F
COUNT 1 1 1 1
WIDTH 1
HEIGHT 65
VIEWPOINT 0 0 0 1 0 0 0
POINTS 65
DATA ascii
4.2891026 0.62245083 0.10487276 536
3.9489372 -0.19725244 0.083841562 456
3.9430492 -0.061398458 0.092018746 415.80002
3.9451346 0.043964945 0.083594225 933.25
3.35515 0.32937664 0.034347057 385
3.5296183 0.3937853 0.06702707 402.5
3.6320512 0.38392317 0.0026373565 295
3.5748301 0.46657681 0.045720935 382
3.9541616 -0.2177621 0.25085428 1176.5
3.9778075 -0.075968228 0.2490802 428
3.9656436 0.061641093 0.23507965 1548.6667
4.063745 0.084224246 0.28988916 271
4.0458956 0.24318065 0.29151195 265
3.5528963 0.37185854 0.18497363 382.60001
3.6280642 0.42683095 0.22709173 369
3.8892074 0.32538289 0.29678535 301
3.597266 0.4726409 0.15319958 407
3.6172576 0.49476752 0.22897568 374
3.9745922 -0.21754366 0.38071042 1467
4.0103793 -0.076137915 0.37959617 397
4.0123653 0.067153811 0.37949744 1196
3.9212692 0.25212365 0.38130683 326
4.0639348 0.175401 0.38000816 266
3.5863194 0.36018372 0.30562896 380
3.6496866 0.36365032 0.38420081 339
3.7526436 0.43664548 0.30251217 279
3.6430805 0.4951247 0.34730372 412
3.9823141 -0.21649294 0.51505613 1852
4.0180759 -0.081684813 0.50861388 377.85715
4.0529342 -0.035289191 0.56185436 373
4.0179 0.065772504 0.49974698 681.66669
4.0604358 0.070211612 0.56231254 455
3.8869541 0.25810981 0.46843076 369
3.943964 0.20225412 0.52856606 663
4.2011471 0.17645043 0.4739368 277
3.6740031 0.37311214 0.46640798 356
3.8407137 0.37944525 0.51344693 1248
3.9339302 0.38590521 0.56139076 313
3.6732759 0.50180805 0.4698894 361
4.0938969 0.55349255 0.54229134 329.66669
4.0205193 -0.21899514 0.68429971 1639
4.045043 -0.12082382 0.70052058 273.5
4.0580163 -0.067572951 0.69199026 371
4.0722847 0.065208092 0.68687212 460
3.9984353 0.20602556 0.69795948 343.25
3.9749181 0.38277659 0.67247152 317
4.0799103 0.54767287 0.6666258 323
4.0988951 -0.22217348 0.80016983 314
4.0975142 -0.064015917 0.81396168 321.66669
4.0086441 0.14803258 0.83547878 387
4.1205835 0.069382384 0.8163569 278.33334
3.9933069 0.2236325 0.83493441 1388.3334
4.0202293 0.38277397 0.80506057 766.20001
4.1362915 0.46400195 0.81085593 295
3.9417024 0.14062943 0.91703767 2863
4.0194368 0.25107127 0.9757542 644.5
4.1500959 0.1787371 0.94739151 281
4.0022097 0.378479 0.93151528 1035
4.1091003 0.3503423 0.99158287 330
3.9558539 0.24423653 1.141976 361.5
4.0841637 0.18235353 1.1217425 297
3.9630022 0.31549662 1.1459435 303.5
3.9834747 0.2174768 1.2764449 297
4.0586743 0.1843951 1.2063007 271
3.964118 0.30732644 1.2747402 301
