# .PCD v0.7 - Point Cloud Data file format
VERSION 0.7
FIELDS x y z intensity
SIZE 4 4 4 4
TYPE F F F F
COUNT 1 1 1 1
WIDTH 1
HEIGHT 60
VIEWPOINT 0 0 0 1 0 0 0
POINTS 60
DATA ascii
4.2992954 0.63722718 0.059303477 390
3.9398665 -0.20307633 0.098171555 401
3.9611595 -0.097307734 0.082346931 401
3.9350154 0.027418671 0.097650461 877.66669
4.051188 0.0062821331 0.033093423 291
3.8688345 0.1942838 0.050819933 244
3.3895707 0.34313962 0.063705668 341
3.554903 0.38822865 0.058618676 277.66669
3.6375818 0.4790771 0.075463563 333
3.952482 -0.21196547 0.25091505 1098.5
3.9700294 -0.071566336 0.24947426 427.25
3.9538774 0.069619447 0.25007141 1193.5
3.5395164 0.38050863 0.19358873 405.33334
3.6432071 0.30724013 0.1864301 351.5
3.596909 0.47518057 0.15326896 387
3.6189082 0.48013216 0.22858253 393
3.9689193 -0.21155992 0.38066399 1312
3.9972126 -0.07162825 0.37961757 412.5
3.9755807 0.054754019 0.37956059 2101
4.0860019 0.086644351 0.37935799 436
3.7817247 0.25527149 0.38180733 651
4.0086231 0.21552196 0.38060802 320.5
3.5698433 0.35924667 0.30606148 396
3.6568487 0.36945853 0.35742065 336
3.6381145 0.49962163 0.34756142 393.5
4.002583 -0.21204153 0.51582301 1245
4.0194407 -0.077853642 0.50858778 378.71429
4.0510087 -0.026453093 0.56174946 379
4.016139 0.061300904 0.51495987 1138
4.0852695 0.079583213 0.51719558 285
3.8880243 0.2279305 0.51201552 619.5
3.9605482 0.19263315 0.52861726 901
3.6933868 0.37045071 0.46673408 325.5
3.8490667 0.40155992 0.55804384 1031.6667
3.916898 0.34391272 0.55955112 325
3.6602695 0.50768203 0.46983194 389
3.8002014 0.5113526 0.47258168 301
4.0269213 -0.21281224 0.70034087 1335
4.0586066 -0.2144215 0.65626878 563
4.0337839 -0.072872669 0.65318596 388
4.0574207 -0.07359156 0.7013011 376
4.1304235 0.071311966 0.65983772 282
3.9972713 0.22622827 0.69809026 345.66669
4.0602903 0.16535005 0.70218116 314
3.9815712 0.38191962 0.68531632 314.66669
4.1334419 -0.21851167 0.80409276 291
4.1560316 -0.025497397 0.80495298 294
4.2207732 -0.13556065 0.86050791 245
4.0287509 0.075024135 0.83717006 320
4.1358232 0.068824515 0.78680062 275.66669
3.9902205 0.20869806 0.8343159 1695.5
4.012342 0.39586148 0.81846702 915
4.1334181 0.46294066 0.81050479 300
3.9832413 0.26754925 0.96974301 425
4.0950541 0.2041543 0.96291405 312.5
4.1129179 0.37615705 0.97814071 282.66669
3.9741259 0.24815775 1.1462836 310.25
4.0957971 0.18568945 1.1240277 275
4.0043311 0.32456911 1.110359 311
4.0295167 0.32108569 1.2039647 301
