# .PCD v0.7 - Point Cloud Data file format
VERSION 0.7
FIELDS x y z intensity
SIZE 4 4 4 4
TYPE F F F F
COUNT 1 1 1 1
WIDTH 1
HEIGHT 92
VIEWPOINT 0 0 0 1 0 0 0
POINTS 92
DATA ascii
2.763968 -1.819591 0.095059782 694.66669
2.7952082 -1.7252934 0.077329151 459.88889
2.8263767 -1.6375874 0.054994985 473
2.8545306 -1.6340215 0.12744433 491
2.5898099 -1.4077615 0.069964968 527.5
2.700516 -1.4847412 0.140971 1033
2.6152961 -1.3419021 0.091675423 466
3.126615 -1.08092 0.1073885 255
2.834681 -0.84036589 0.075818971 525.66669
2.7971587 -1.8380347 0.24486814 481
2.8120477 -1.7435414 0.23059228 488.60001
2.8666 -1.6865745 0.26237851 477
2.8077366 -1.5776652 0.2211705 1303.4
2.6254547 -1.3704628 0.21993557 477
2.856123 -1.3500105 0.24275291 303
3.0826695 -1.3724067 0.22463521 648
2.6294982 -1.3410571 0.22207963 482.33334
2.9921753 -1.2281882 0.29274046 385
3.0544999 -1.2924263 0.25739971 395
2.9779601 -1.1375031 0.28846908 365.66669
3.1422908 -1.0852928 0.20598668 200
3.1898592 -1.1472194 0.27621114 475.5
2.9434934 -0.96974975 0.28167778 333
2.8378513 -0.84310228 0.20882316 561.79999
2.8809764 -0.79992765 0.22511129 447.14288
2.8149071 -1.8312054 0.38523138 495.5
2.8351452 -1.7783012 0.37890559 503
2.8701766 -1.7102616 0.3780449 479.39999
2.7463293 -1.5021585 0.32737747 699
2.8741345 -1.6211393 0.35133106 1080.3334
2.6641569 -1.3763598 0.35605657 439
2.744524 -1.4271412 0.38867444 347
2.9162586 -1.407741 0.44986558 289
3.0615137 -1.4234047 0.44768041 625
2.6680541 -1.3462316 0.32148939 385
2.78368 -1.3286718 0.33448023 338.33334
2.9333694 -1.3118639 0.36106104 365.28574
3.0126677 -1.2504973 0.40591112 487
2.9896045 -1.1374128 0.40305921 464.33334
3.0327625 -1.1316247 0.40141964 427.66669
2.9338715 -0.97632366 0.37738541 370.42859
2.8891954 -0.83361977 0.37515968 453
2.8066347 -1.8540463 0.53720742 1125
2.8005292 -1.7400794 0.52910376 387.57144
2.8782041 -1.6899979 0.50355929 494.33334
3.0432739 -1.6765993 0.52411789 344.33334
2.9117019 -1.6294589 0.50840306 664
2.8085172 -1.4291669 0.49766871 279.20001
2.8742387 -1.4246473 0.5484668 333
3.0654554 -1.3978243 0.55865943 398
2.9781237 -1.2761061 0.54588658 2530
3.0456638 -1.24554 0.5439263 775.66669
3.0885456 -1.1556225 0.5361861 1328
3.1987281 -1.1097711 0.53415424 1011.5
2.9701018 -0.95183706 0.5172925 398
3.0145354 -0.96402299 0.51915705 349
2.9217525 -0.85343057 0.47505733 309
2.8204651 -1.9012021 0.68534648 1104.3334
2.885184 -1.8807111 0.73570251 332
2.7917328 -1.7527177 0.65717518 355.5
2.9023616 -1.710063 0.68454504 308
3.098196 -1.6910627 0.71301019 281
2.9351509 -1.5906109 0.61759806 334.33334
2.9761624 -1.433296 0.67465383 349
3.0372713 -1.3877785 0.68666595 965.79999
3.0645015 -1.2560871 0.69530308 910.75
3.11516 -1.1192154 0.67571807 819.79999
3.1609473 -1.1142315 0.69860524 323
3.0866785 -0.98747754 0.66906631 359
2.9061756 -1.8997672 0.8199265 324
2.9564764 -1.7523859 0.8174957 300.5
3.0824265 -1.7540607 0.84562588 367
2.9857545 -1.4292942 0.75040901 371
3.0356414 -1.4289874 0.8113538 851.5
3.1556833 -1.4125941 0.83826965 313
3.0829282 -1.2732213 0.81279868 1811.6667
3.1983774 -1.242204 0.85849452 340
3.0836706 -1.1352004 0.79533601 2611
3.2059464 -1.128165 0.83751583 334.60001
3.1418052 -1.5029255 0.93013597 283
3.146699 -1.4109502 0.91614825 315
3.2372222 -1.4086363 0.96564305 300
3.1127889 -1.2741673 0.98606032 314
3.1984966 -1.2878091 0.9298141 310.33334
3.308604 -1.2155926 0.94679809 321
3.1372049 -1.3694061 1.0633247 243
2.9718387 -1.2446835 1.1568201 341
3.0795319 -1.2763209 1.1217946 326.71429
3.3407552 -1.2756983 1.0798342 442
3.010133 -1.1769725 1.1518995 319
3.0021992 -1.2558848 1.2331905 361
3.0496178 -1.1915288 1.2310135 367
