# .PCD v0.7 - Point Cloud Data file format
VERSION 0.7
FIELDS x y z intensity
SIZE 4 4 4 4
TYPE F F F F
COUNT 1 1 1 1
WIDTH 1
HEIGHT 80
VIEWPOINT 0 0 0 1 0 0 0
POINTS 80
DATA ascii
6.0917826 -1.541376 0.12962675 358
4.9211636 -0.67137361 0.059160352 1903
4.9557099 -0.60159409 0.055487156 313
4.9487844 -0.47696003 0.054277837 319
4.9764304 -0.55509657 0.053284645 313
4.7448735 -0.34880525 0.067751825 435
4.9580121 -0.42179984 0.052970767 327
4.6567173 -0.25344309 0.073388487 311
4.6656871 0.28008848 0.072922587 317
4.6419764 0.34690991 0.075219512 315
4.9423985 -0.66600281 0.16471165 1929
4.9924994 -0.62845635 0.23528431 711.66669
5.0017171 -0.51679081 0.21451958 314.5
4.9229746 -0.36647108 0.16097093 623
4.9601517 -0.39845389 0.23236004 839.66669
4.6432152 -0.27222323 0.17401314 329
4.676332 -0.2458044 0.24071424 311.66669
4.8192782 -0.16927548 0.27029061 287
4.9750495 -0.053932134 0.26569909 291
5.1522946 -0.001754504 0.26096308 479
4.9577742 0.074446201 0.26620287 297
5.2599211 0.11576306 0.25834286 473
4.6847496 0.28704128 0.22355032 310
4.8534117 0.19169226 0.26953197 303
5.0985689 0.2361737 0.26334757 646
4.6464729 0.34071127 0.17453629 311
4.6627388 0.33541599 0.27603865 321
5.0082893 -0.63727427 0.38472992 806
5.023067 -0.51556444 0.38185725 315
4.9624023 -0.38870314 0.37976238 1844
4.7282295 -0.25424403 0.37873626 286
5.0139256 -0.17032212 0.37712133 281
4.9042559 -0.1265123 0.37717789 291
4.9673538 -0.027686477 0.37669262 308
4.9388561 0.10252459 0.37696475 297
5.0083013 0.080278367 0.37668228 305
4.7591357 0.29755941 0.37914538 275
4.809854 0.21588421 0.37809753 293
5.0216398 0.20321681 0.37734586 309
4.6567111 0.32842681 0.37990057 327
5.0446138 -0.63925117 0.5001328 384
5.0385795 -0.51479399 0.49678078 313
4.9774013 -0.38812062 0.49294347 1788
4.8890009 -0.262117 0.4892264 266
5.2259145 -0.17149203 0.49537939 291
4.9307652 -0.042396579 0.48854166 2543
5.0339594 -0.074338488 0.49089125 312
4.9700613 0.091018312 0.48952198 1158
5.1524515 0.21952498 0.49425337 322
4.8186994 0.33380154 0.48877865 253
5.0767837 -0.63799971 0.6579985 314.33334
5.1214118 -0.64781052 0.74042153 307
5.0606251 -0.51348996 0.67326993 298
5.061429 -0.39400136 0.6510095 333.66669
5.1569238 -0.39463824 0.73562694 277
5.0695848 -0.21231127 0.66767526 500.5
5.3229599 -0.16833438 0.62017536 261
4.946147 -0.017418953 0.60239059 1887
5.0122409 -0.030902958 0.68242705 944.33337
5.1912537 -0.14656562 0.67423868 286
5.0410795 0.09168186 0.66528654 831.5
5.0096188 0.20887518 0.6643818 295
5.1410322 0.220108 0.67176867 303
5.1469216 -0.64461958 0.86271703 289
5.1124339 -0.51597416 0.85504687 289
5.123239 -0.40425068 0.8529464 303
5.1947346 -0.15153824 0.85543495 273
5.0395684 -0.088969871 0.84046274 1095
5.2069845 -0.027810415 0.85592848 279
5.0142126 0.08108177 0.83791721 1549
5.2228694 0.1043565 0.85772771 289
5.0911894 0.2034415 0.84623986 305
5.1817765 -0.15813731 0.97484541 434
5.0870175 -0.021668607 0.96277767 277
5.1852522 -0.034375191 0.97448099 259
5.1976461 0.078351863 0.97611606 287
5.0332088 -0.027236603 1.1298009 289
5.0342174 0.06456732 1.1878906 293
5.1070533 0.071208954 1.0832627 285
5.0262842 0.058960088 1.3004564 352
