# .PCD v0.7 - Point Cloud Data file format
VERSION 0.7
FIELDS x y z intensity
SIZE 4 4 4 4
TYPE F F F F
COUNT 1 1 1 1
WIDTH 1
HEIGHT 63
VIEWPOINT 0 0 0 1 0 0 0
POINTS 63
DATA ascii
4.4468284 0.68200988 0.048266999 306.5
3.888905 -0.24256119 0.049208254 2159
3.9489894 -0.20656864 0.097342156 1005.6667
3.9586318 -0.084130026 0.088471778 423.85715
3.9447732 0.028294167 0.070281133 1039
3.5342982 0.28877932 0.048272282 329
3.3899555 0.34483632 0.030433819 362
3.587817 0.39024445 0.079097562 329.66669
3.6900623 0.48484945 0.070538402 291
3.982244 -0.21663789 0.24981046 462.5
3.9846394 -0.072978951 0.24896136 429.75
3.9867113 0.080708586 0.2344743 269
3.5689507 0.29700166 0.19064091 392
3.8618515 0.23883404 0.29639435 398
4.0736694 0.15152474 0.28997475 410
3.5523601 0.37143803 0.17374434 397.5
3.679924 0.41787916 0.22431032 359
3.6204824 0.47780985 0.19004838 363
3.9987066 -0.21617503 0.38062012 401
4.0124598 -0.072910219 0.37957478 398
3.9915791 0.054990411 0.37951547 134
3.9120619 0.25498071 0.38137269 299
3.5881779 0.33374026 0.30509979 427
3.6627092 0.36927527 0.3576352 382
3.8009279 0.41195229 0.30068177 283
3.6696205 0.49619505 0.36039671 365.66669
4.0136414 -0.21437961 0.50091016 387.66669
4.0665393 -0.22194712 0.56400084 379
4.0263166 -0.071776025 0.50008655 378.66669
4.0705271 -0.076391459 0.56286645 377
4.1513033 0.072757728 0.56644893 297
3.9358461 0.2077121 0.51344937 717.25
3.7028117 0.38052416 0.46716446 346
3.8565977 0.36603653 0.49910125 1277.6667
3.96716 0.41147837 0.56351566 308.33334
3.7478125 0.51712722 0.47177631 313
4.0599794 -0.21661222 0.65639734 375
4.0699768 -0.064321086 0.67435592 375.80002
4.0077629 0.067855224 0.74291545 285
4.1054754 0.071515508 0.65809727 335.5
4.0112457 0.20225602 0.69216031 349.57144
4.052557 0.26708895 0.74973208 303
3.9872577 0.34784243 0.68439978 333.66669
4.0232081 0.45268011 0.65945953 301
4.1180248 0.45794696 0.66607028 297
4.1206436 -0.2216495 0.78712338 331
4.1467371 -0.079574339 0.80426389 302
4.01088 0.074667446 0.83504409 877
4.0909119 0.068586022 0.79772055 286
4.0108266 0.20878093 0.83676559 1163.5
4.0250216 0.35772255 0.84193945 1975
4.0689068 0.35261393 0.80009615 301
4.127305 0.45530683 0.80986965 295
4.2265863 0.47303364 0.77167434 269
4.0374627 0.14896718 0.9308461 391
4.1201792 0.060742464 0.94184214 253
4.0166931 0.22797176 1.0200211 372
4.0657301 0.23061828 0.936382 341
4.1167421 0.34418502 0.94652152 307
4.1712008 0.45059776 0.95799661 328
3.9615831 0.22390874 1.121012 350
4.0038972 0.21819293 1.2813073 424
4.059927 0.23360801 1.2078581 283
