# .PCD v0.7 - Point Cloud Data file format
VERSION 0.7
FIELDS x y z intensity
SIZE 4 4 4 4
TYPE F F F F
COUNT 1 1 1 1
WIDTH 1
HEIGHT 53
VIEWPOINT 0 0 0 1 0 0 0
POINTS 53
DATA ascii
3.3028021 0.58797324 0.10928056 363
2.2435358 0.27430549 0.083129466 633
2.3113217 0.28008425 0.086560033 493.66669
2.3053863 0.3308 0.074467644 407
2.4869945 0.38941106 0.083883032 411.66669
2.5720141 0.43304539 0.078596771 327
2.9629705 0.062110234 0.25635356 264
3.0040493 0.066477954 0.19221273 380
2.3543322 0.27479017 0.15019678 405
2.4614985 0.28137717 0.23426914 406.33334
2.3917956 0.32529366 0.28817323 459
2.4796331 0.35871419 0.22955935 435.54547
2.7752025 0.1063894 0.40341681 330.66669
2.9260767 0.09340921 0.36134267 278
3.0644243 0.051781215 0.42708382 338
2.6545901 0.26025015 0.3935276 376.75
2.7449946 0.18633138 0.40126121 366.57144
2.5034544 0.36220276 0.38982922 462.69232
2.8312809 0.32003266 0.32563511 567
2.7852392 0.10743596 0.52530956 335.66669
2.8736773 0.061252262 0.5561707 351.5
3.0286973 0.050070647 0.5154053 317
2.6811123 0.28675342 0.53313631 425
2.743253 0.21284595 0.52195805 390.71429
2.901803 0.21078873 0.57615411 473
2.5120063 0.35674375 0.49869949 423
2.5663178 0.33074731 0.5567534 323
2.7080936 0.35101327 0.50681746 347
2.8794947 0.39233655 0.56412756 363
3.0348077 0.47079873 0.59379363 479
2.8223886 0.072759673 0.63123536 337
2.8969917 0.079370096 0.68129265 441
2.8406663 0.26762253 0.63673818 414
2.8931468 0.20501967 0.67690575 494.71429
2.8248727 0.42999202 0.64167702 305
2.8929291 0.35834911 0.68542916 435.25
2.9325089 0.45231482 0.68573159 652
2.8922791 0.089019991 0.80246627 716.42859
2.8351634 0.21215621 0.80725002 1779
2.8821042 0.22725694 0.82411987 593.22223
2.8397431 0.33191183 0.85936058 722
2.9005597 0.37490055 0.80396777 682.42859
2.955373 0.45739177 0.78821331 421
2.9095216 0.25928128 0.97247982 328.66669
3.0580258 0.16632961 0.99141079 273
2.8348138 0.32164344 0.98945397 417.66669
2.9390252 0.37514707 0.97421706 306.5
3.0653985 0.44878209 0.93936098 263
2.8243713 0.2640326 1.1160811 321
2.8601086 0.25431356 1.0702651 325
2.8087995 0.34441635 1.1064078 379
2.8983092 0.35820264 1.1051576 302
3.0027173 0.42848396 1.0553443 289
