# .PCD v0.7 - Point Cloud Data file format
VERSION 0.7
FIELDS x y z intensity
SIZE 4 4 4 4
TYPE F F F F
COUNT 1 1 1 1
WIDTH 1
HEIGHT 62
VIEWPOINT 0 0 0 1 0 0 0
POINTS 62
DATA ascii
4.7815056 -1.9199481 0.11064875 272
2.7943969 -0.31396928 0.047928378 524.5
2.9126844 -0.34184918 0.085892797 537
2.823823 -0.25392333 0.096507773 517
2.8502727 -0.24588774 0.092319906 485
2.8768222 0.28833753 0.090420842 516
3.5000806 0.20551908 0.050988078 329
2.8231065 0.36054322 0.079351217 523
2.869154 0.41552535 0.091775775 407
2.8242438 -0.30339739 0.17892775 554
2.8634768 -0.30153155 0.26369688 543
2.8870714 -0.2450062 0.23786359 507.80002
2.8940904 0.2813189 0.2219135 521.66669
3.2838156 0.19840403 0.2412509 264
3.374409 0.20167676 0.16609713 280
2.8046942 0.35959855 0.15324266 563
2.8814275 0.34587619 0.23972455 487
2.8991613 -0.25168446 0.37285194 482.39999
3.0418484 -0.16067183 0.35021573 360.25
3.1089807 -0.051563509 0.35342917 385.85715
3.0991709 0.084402874 0.37484747 379.88889
2.929652 0.25553045 0.37236759 500.60001
3.0381544 0.19249494 0.38351363 406.5
3.1660602 0.21494988 0.31478959 257
2.883616 0.31979859 0.37410498 575.79999
3.0820282 -0.15601894 0.45036501 313
3.2446437 -0.17256886 0.54433972 372.5
3.317975 -0.17174378 0.52960378 991
3.1450982 -0.069700591 0.49757314 1225
3.2017715 -0.039724436 0.51351088 761.85718
3.1082611 0.12922601 0.48503339 415
3.2172582 0.065867342 0.53638858 835.66669
3.1161153 0.26375389 0.45278883 257
3.2270162 0.20286147 0.52591741 335
3.3432796 0.21451399 0.53139251 263
2.943779 0.31542486 0.45052034 358
3.2794466 -0.17466915 0.67549264 379
3.3017581 -0.16821967 0.67748016 409
3.2570996 -0.064465903 0.68656814 862.40002
3.2523491 0.087117977 0.7032308 954.71436
3.3105829 0.13237433 0.6529054 387.66669
3.2635579 0.20477116 0.63786995 411
3.303771 0.21449834 0.67852628 417
3.3290467 -0.1723617 0.79281521 429.5
3.2579417 -0.067387827 0.81847763 2167
3.319268 -0.046386257 0.82711351 415
3.2536223 0.082606226 0.81798017 2431
3.3301826 0.10314076 0.82917011 368
3.2986226 0.19392271 0.82611281 445
3.3597696 0.21555197 0.7856679 371
3.3984516 -0.18928218 0.91597188 315
3.2577934 -0.0018515127 0.99687392 324
3.3669791 -0.051550351 0.945526 336.33334
3.2545819 0.037080232 1.0316417 321
3.3678911 0.069170319 0.9387539 307.80002
3.3360229 0.19198835 0.90562516 353
3.249651 -0.049481593 1.1434449 312.33334
3.321986 -0.06786602 1.1165121 265
3.231235 0.018242918 1.1277225 344
3.3470731 0.076598726 1.1218932 266.33334
3.2050767 -0.046680417 1.2180376 353
3.2333088 0.018004294 1.2258476 347
