# .PCD v0.7 - Point Cloud Data file format
VERSION 0.7
FIELDS x y z intensity
SIZE 4 4 4 4
TYPE F F F F
COUNT 1 1 1 1
WIDTH 1
HEIGHT 48
VIEWPOINT 0 0 0 1 0 0 0
POINTS 48
DATA ascii
2.523092 0.37051114 0.056086533 424.33334
2.5873141 0.33859706 0.081612878 399.22223
2.6640632 0.52268809 0.077367775 431
2.599272 0.298215 0.27704006 455
2.5366774 0.37046331 0.23023935 447
2.5766997 0.33713514 0.22634964 465.85718
2.645031 0.5347845 0.23099093 416.39999
2.7609634 0.46897474 0.1874236 489
2.8027699 0.1059231 0.39866939 349.25
2.8830848 0.12327391 0.38314015 313
2.6238847 0.26434028 0.39305273 406.77777
2.7370274 0.18484171 0.39267051 418.71429
2.5356433 0.35479957 0.3781203 480.20001
2.5887923 0.373281 0.39032453 427.33334
2.6313045 0.51280117 0.36239615 417.22223
2.8084521 0.11002694 0.52648318 1808.3334
2.8731794 0.11268651 0.57249224 381
2.6896479 0.29303306 0.50417447 495
2.7752841 0.2135089 0.53379601 1324.1111
2.7880843 0.33365917 0.54114366 363
2.8852117 0.37851337 0.54140157 415.80002
2.799588 0.50852406 0.45441651 303
2.9549527 0.4584758 0.58796489 305
3.0280552 0.4721103 0.55937922 424
2.8052168 0.10972988 0.67155325 459.66669
2.9370241 0.070939384 0.66408968 309.66669
3.0917592 0.044607792 0.72563118 273
2.789855 0.22468604 0.65412724 457.25
2.8935888 0.21685746 0.70488858 422
2.8102582 0.30322981 0.63503098 499
2.9167168 0.38933328 0.68593162 403.85715
2.9470847 0.45835018 0.68763763 348
2.8866618 0.11125074 0.7975477 453
3.1139784 0.050251465 0.79766035 356
2.8359652 0.22492729 0.82332909 2653
2.899307 0.20375396 0.81906277 818.55554
2.9448545 0.36517626 0.81488246 773.60004
2.9937749 0.46753159 0.79411876 445
2.9455373 0.098072559 0.90279388 361
3.1218057 0.13609916 0.9371106 261
2.9514978 0.27005348 0.97152072 392.71429
3.0067396 0.19829123 0.91666228 323
2.9327812 0.33756059 0.97059387 425.66669
3.0167837 0.33370283 0.92380351 305
2.9038835 0.24734847 1.1099031 392
3.0744188 0.22308753 1.0821328 273.66669
2.918422 0.33502194 1.1183133 327.5
3.0146577 0.36269504 1.0538644 285
