# .PCD v0.7 - Point Cloud Data file format
VERSION 0.7
FIELDS x y z intensity
SIZE 4 4 4 4
TYPE F F F F
COUNT 1 1 1 1
WIDTH 1
HEIGHT 53
VIEWPOINT 0 0 0 1 0 0 0
POINTS 53
DATA ascii
6.3914003 -1.7391361 0.12074658 321.5
4.6896224 -0.33874017 0.071677268 453
4.6373515 -0.28561264 0.075023293 315
4.6785407 -0.22998263 0.071640849 301
4.6454334 0.28427193 0.074425757 335
4.611762 0.33659223 0.077320457 311
4.7969704 -0.35067835 0.16710758 413
4.6467361 -0.27993873 0.17390704 331
4.6781292 -0.24928044 0.24070071 309.66669
4.8554616 -0.16455573 0.26930141 289
4.9610395 -0.055103 0.26607192 301
4.9349108 0.065681927 0.26678562 289
4.6654453 0.29123828 0.22420606 311
4.8317542 0.18302079 0.27004802 289
5.0225301 0.18609224 0.15448278 274
4.6691418 0.33123264 0.22436875 304
4.7073069 -0.24354772 0.37868506 307
5.0960407 -0.23088813 0.37744087 449
4.8920212 -0.13465489 0.37725765 293
4.9873376 -0.032347124 0.37663904 303
4.9217272 0.10804761 0.37703806 283
4.9874396 0.07147263 0.376715 375
4.8318906 0.21564054 0.37802809 293
5.0439582 0.19607574 0.37722141 1567
4.7115216 0.31205964 0.37949392 280
4.7480121 -0.24971521 0.48614341 241
5.218142 -0.16472811 0.49516648 301
4.9671521 -0.068653852 0.48944116 833
4.9815655 0.089965478 0.48976362 337
4.8810902 0.21173351 0.48850167 271
5.1595764 0.20541736 0.49426901 311
4.7524753 0.32091811 0.48721504 273
5.2060661 -0.15664905 0.65530962 264.33334
4.9241347 -0.02494205 0.60139918 2625
5.0401235 -0.062807761 0.69435501 649
5.0410957 0.090434164 0.6653676 965.5
5.0352554 0.20533431 0.66581964 297
5.1272545 0.21473593 0.6714536 356
5.1018333 -0.15965988 0.84675795 307
5.0018392 -0.035638932 0.83658522 2351
5.2000079 -0.029137565 0.85527229 267
5.3073797 -0.14848839 0.86602336 263
5.0071378 0.086873434 0.83728009 2395
5.225039 0.09570086 0.85788101 283
5.1031828 0.20260568 0.84735823 301
5.1725459 -0.16664654 0.97383982 277
5.0701303 -0.022916617 0.96077162 287
5.1851888 -0.042275745 0.97449327 273
5.1886067 0.084322214 0.9750731 305
5.1980977 0.20012116 0.97727257 263
5.0395684 -0.031791616 1.1309577 290.75
5.0645866 0.073716581 1.1348712 349.5
5.0910225 0.065683059 1.3128797 253
