# .PCD v0.7 - Point Cloud Data file format
VERSION 0.7
FIELDS x y z intensity
SIZE 4 4 4 4
TYPE F F F F
COUNT 1 1 1 1
WIDTH 1
HEIGHT 88
VIEWPOINT 0 0 0 1 0 0 0
POINTS 88
DATA ascii
6.5847015 -1.9173297 0.11721158 294
4.9405951 -0.67642707 0.057816982 1855
4.9613299 -0.60485113 0.055124879 313
4.9666719 -0.52011025 0.053538829 315
4.7616324 -0.35202056 0.066562891 439
4.9726763 -0.42580807 0.051945627 329
4.6535358 -0.25674951 0.073641837 318
4.6518817 0.27713317 0.073902547 321
4.6083632 0.34174338 0.077615976 319
4.9440651 -0.66848487 0.16467673 1953
4.9948225 -0.63121104 0.23523375 757.66669
5.0087547 -0.52134544 0.2143058 312
4.9425182 -0.37369677 0.26900065 1647
4.9606819 -0.39971137 0.19608736 661
4.6490402 -0.27511081 0.17374814 325
4.6794462 -0.24972849 0.24045852 311.66669
4.8421893 -0.17187503 0.26969862 287
4.9859867 -0.058950454 0.26542002 281
4.977807 0.072091624 0.2656669 293
4.6818848 0.28476426 0.22344002 310
4.8385367 0.18847276 0.26990491 291
5.0013604 0.19064641 0.15556258 170
5.1906738 0.23554669 0.26089031 489
4.6267481 0.33667713 0.17547965 319
4.6669149 0.3332251 0.27589846 313
5.0109367 -0.64009857 0.38479003 874
5.0211639 -0.51915526 0.38193989 311
4.946764 -0.37766966 0.37964177 1843
4.9816356 -0.40475714 0.3799504 1991
4.6921558 -0.24586503 0.378757 309
4.8277955 -0.27335328 0.37863249 261
5.1038017 -0.17538223 0.37689006 335
4.8781939 -0.12840638 0.37726378 299
4.9973245 -0.031639792 0.37661323 306
4.9239035 0.10020601 0.37699819 287
4.9903483 0.077306516 0.37672424 309
4.7383204 0.29407635 0.37916917 255
4.8080778 0.2110889 0.3780598 295
5.0687113 0.20251393 0.3771984 469
4.6509118 0.32550398 0.37987858 327
5.0576715 -0.64341533 0.50050348 410
5.022275 -0.5167377 0.4965027 312
4.9841843 -0.39099538 0.49313322 1587
4.9047685 -0.26658484 0.48960897 248
5.2198539 -0.17314549 0.49526471 281
4.9347181 -0.047237363 0.48863518 2529
4.9889412 -0.075976104 0.48994592 305
5.0025921 0.089311391 0.49020132 558
5.0949821 0.21792983 0.49303496 331
5.2062869 0.21293639 0.49531621 305
4.7610536 0.32703242 0.48748678 263
5.0705271 -0.6395694 0.65775335 314.33334
5.1438446 -0.65310824 0.74212372 303
5.0612125 -0.51725 0.67350346 294
5.0506477 -0.3946436 0.61106372 789
5.1200752 -0.39843971 0.73316872 280
5.5279145 -0.30049044 0.63088155 307
5.0807104 -0.15591899 0.72671801 333
5.2374973 -0.15314028 0.73762542 275
5.3458595 -0.1709933 0.62123376 474
5.4091792 -0.29463431 0.6254549 544
4.9301524 -0.019967683 0.60166663 2495
5.0295067 -0.035131022 0.68355155 987
5.1997004 -0.14716585 0.61443013 297
5.0431271 0.089392573 0.66528964 972
5.0352211 0.20623484 0.6657303 298
5.1172562 0.21519686 0.67061698 316
5.1169848 -0.64316571 0.85991198 307
5.1121173 -0.51888359 0.85510844 301
5.132987 -0.40710092 0.85392636 303
5.476367 -0.30289158 0.75603729 355
5.0721807 -0.15268192 0.8438977 317
5.210598 -0.15385903 0.85695106 263
5.4874935 -0.28730601 0.82060456 320
4.998888 -0.03059471 0.83629632 2187
5.2059574 -0.032821018 0.85584062 271
5.004292 0.07894589 0.83697081 2295
5.2338762 0.10183565 0.85875052 285
5.1162648 0.19956613 0.84855235 305
5.1648149 -0.16029415 0.97285396 251
5.1549788 -0.031930443 0.97087717 275
5.1887426 0.076182432 0.97504669 299
5.0358024 -0.027503489 1.1494761 281.66669
5.107408 -0.041651011 1.0831938 275
5.0293126 0.062567547 1.1870596 269
5.1031237 0.069173239 1.0826895 255
5.1894116 -0.052691072 1.3316443 307
5.0420222 0.057230946 1.3034596 249
