# .PCD v0.7 - Point Cloud Data file format
VERSION 0.7
FIELDS x y z intensity
SIZE 4 4 4 4
TYPE F F F F
COUNT 1 1 1 1
WIDTH 1
HEIGHT 63
VIEWPOINT 0 0 0 1 0 0 0
POINTS 63
DATA ascii
4.4621015 0.70934665 0.093757004 293
3.9243703 -0.21323669 0.08594916 1261
3.9605052 -0.097990021 0.082606971 412.33334
3.9322026 0.023781933 0.084678292 1283
3.5793324 0.29305393 0.043395132 369.5
3.3541126 0.32821062 0.10060033 399
3.4883969 0.35945314 0.053965226 335
3.616581 0.34168583 0.077267796 315
3.583607 0.47203237 0.044810757 367
3.9661512 -0.21387318 0.25050229 1121.5
3.9827681 -0.071819514 0.24903363 418.25
3.9702382 0.050470911 0.24945489 1313
3.9367747 0.24208587 0.29442269 297
4.0675178 0.15522543 0.2901631 202
3.5455 0.37233043 0.17411932 409.5
3.6246829 0.37540179 0.22644815 352.33334
3.6220083 0.48130113 0.19007522 401
3.9938269 -0.21403122 0.38061088 684
4.006465 -0.07176026 0.37959081 400.5
4.0165496 0.057123747 0.37945026 357
3.847415 0.26192236 0.38168019 194
3.917325 0.19815305 0.38073272 1290
3.5627871 0.33181092 0.34496349 417
3.6762314 0.3760747 0.33614185 336.60001
3.7618303 0.41151941 0.38471687 305
3.646441 0.49802211 0.34702587 383
3.809505 0.52645421 0.34461728 454
4.0207429 -0.21406412 0.5163458 415
4.0158429 -0.069996819 0.49967533 383.33334
4.0665092 -0.076890975 0.56268913 384
4.2225895 0.064451784 0.47364712 277
3.9585235 0.21568137 0.52107537 605.57147
3.6090698 0.32842526 0.46405482 375
3.7751834 0.39965782 0.52608162 322.33334
3.9782171 0.39268422 0.51877117 333.5
3.6429465 0.50185734 0.46932083 393
3.9285498 0.5375464 0.56567091 583
4.0395532 -0.21561334 0.65496415 431
4.1075101 -0.21540238 0.65967882 325
4.0268354 -0.071072385 0.6526916 381
4.0938272 -0.074493706 0.70386922 344
4.1648197 0.072695412 0.66224557 285
3.8707616 0.15671457 0.64243621 319
3.9806433 0.20879744 0.69633532 901.66669
3.9792657 0.38063616 0.70037979 523
4.0860724 0.45629981 0.66384625 297
4.0814075 -0.22280107 0.79860914 387
4.0923862 -0.079711109 0.84486616 354.5
4.1301565 0.06936381 0.80209684 281
4.0039568 0.22111607 0.83618253 398.33334
4.0951109 0.22261593 0.80000556 308
3.9994893 0.34312901 0.83850282 311
4.1352978 0.40904605 0.85659075 298
4.2055631 0.4727369 0.76972401 295
3.9355793 0.14509718 0.91622227 3179
4.0987573 0.14661863 1.0321419 243
4.0002818 0.25308397 0.97246683 404
4.0675263 0.1827644 1.0275069 305
4.0046005 0.3840661 0.93205333 1588
4.126399 0.39001483 1.0431845 350.5
3.9867551 0.2417964 1.1333247 344.33334
4.0594139 0.18564446 1.1170808 299
3.9969876 0.21961096 1.2797064 279
