# .PCD v0.7 - Point Cloud Data file format
VERSION 0.7
FIELDS x y z intensity
SIZE 4 4 4 4
TYPE F F F F
COUNT 1 1 1 1
WIDTH 1
HEIGHT 61
VIEWPOINT 0 0 0 1 0 0 0
POINTS 61
DATA ascii
4.4796391 -1.6848761 0.024575889 402
2.7881584 -0.31580418 0.048689924 522
2.8133159 -0.26321426 0.084240362 520.5
2.8569002 -0.25353742 0.11928482 521
2.8733549 0.28020641 0.090660006 497.66669
2.8063323 0.35600564 0.069356918 539.28577
2.8643029 0.41439047 0.092328012 387
2.8311176 -0.30470723 0.17841017 552
2.8441129 -0.27295095 0.23482455 564
2.890389 -0.24297614 0.23758069 455.80002
2.8927279 0.27931529 0.23201139 499.5
2.8300114 0.33561319 0.15051153 485
2.8735406 0.34977567 0.23435879 469.5
2.8960063 -0.25641474 0.37292853 510.60001
3.0363874 -0.16394165 0.3503958 364.25
3.1074955 -0.057419449 0.37270126 324.71429
3.1101091 0.083158135 0.37101349 335.33334
3.1558015 0.03285649 0.38184553 289
2.9270453 0.26561499 0.36724836 509.57144
3.0438428 0.18509111 0.36157978 375
2.906945 0.33865702 0.37109452 506.5
3.081991 -0.1566852 0.45037222 313
3.2306533 -0.1747708 0.56175721 356
3.3318973 -0.17324938 0.53025126 969
3.4760938 -0.19889063 0.45909101 389
3.1335349 -0.098906323 0.47416878 369
3.2113438 -0.052859601 0.5510543 1037.75
3.1105545 0.12342136 0.47380719 411
3.216409 0.061334144 0.52408439 1075.8
3.0775783 0.22553667 0.45133775 359
3.2420907 0.22427732 0.55116051 480
3.3282695 0.20354602 0.49325421 342
3.2858248 -0.17714313 0.63910061 383
3.331171 -0.17694125 0.68038708 417
3.2511144 -0.055103052 0.70273149 1011.5715
3.2716954 0.08733137 0.68091661 856.40002
3.3067665 0.12758146 0.677369 415
3.2779973 0.19831803 0.63869375 423
3.3160481 0.21027642 0.67958951 415
3.3278456 -0.17616066 0.79267973 412.5
3.2349586 -0.075105265 0.81525719 2612
3.3310876 -0.071187161 0.80435932 365
3.2393188 0.079732254 0.81591386 2480
3.3526936 0.095668584 0.83231509 367
3.289716 0.18776262 0.75092632 461
3.3199444 0.19917387 0.79189241 425
3.454247 0.22473556 0.84900856 265
3.4289241 -0.19183619 0.92111111 301
3.2617011 -0.0023921411 0.99772567 321
3.3650379 -0.053298522 0.92745733 349.5
3.4859641 -0.088121377 0.9289369 367
3.2614822 0.032460935 1.0331017 319
3.3404071 0.063911214 0.96265709 323
3.4511268 0.059710443 0.92286181 293
3.3307402 0.1817387 0.90451086 415
3.2699678 -0.059679329 1.1376796 304
3.4022393 -0.062941656 1.0635691 263
3.2464817 0.025668267 1.1248337 325.39999
3.3117578 0.069119051 1.1822553 305
3.2251689 -0.053467326 1.2237616 331
3.2251492 0.01535186 1.2235361 361
