# .PCD v0.7 - Point Cloud Data file format
VERSION 0.7
FIELDS x y z intensity
SIZE 4 4 4 4
TYPE F F F F
COUNT 1 1 1 1
WIDTH 1
HEIGHT 56
VIEWPOINT 0 0 0 1 0 0 0
POINTS 56
DATA ascii
4.4008055 0.66813552 0.051291838 317
3.9356122 -0.2040801 0.076873221 765
3.957093 -0.074814722 0.096290611 417.33334
3.9354391 0.028795931 0.070738345 965.66669
3.5657623 0.29031381 0.080165654 313
3.404351 0.34205875 0.073421389 350.33334
3.9664519 -0.21736331 0.25062704 953.5
3.9883454 -0.074599035 0.24880637 428.75
3.9922364 0.050075255 0.24883747 442
3.5764649 0.29385251 0.15225348 335
3.6096046 0.2993522 0.22605461 329
3.8411486 0.23372559 0.29689282 176
3.5545385 0.37328613 0.18493287 386.60001
3.6117864 0.4281691 0.22794327 423
3.610146 0.47602659 0.19060853 345
3.9886303 -0.21726656 0.38066334 442
4.0094242 -0.074420422 0.37959021 397.5
3.9955628 0.056101963 0.37950724 342
3.8614268 0.26226833 0.38163811 307
3.9100013 0.24128282 0.38119864 301
4.0688462 0.17742047 0.3800112 306
3.5852113 0.33326751 0.3051728 431
3.6564825 0.36634177 0.34390014 361.66669
3.7648873 0.4112125 0.38469732 367
3.652967 0.49262545 0.36052749 391.66669
4.0140567 -0.21719871 0.51609445 395.5
4.0203023 -0.084267929 0.48780537 375
4.0663967 -0.057715237 0.56259131 373.66669
4.1578283 0.071330585 0.56673765 337.5
3.8789473 0.20605098 0.51151115 321
3.9693809 0.20729731 0.51448429 821.66669
3.7239223 0.37251505 0.46737027 327
3.8361225 0.39910209 0.49985152 907
3.9296875 0.37437081 0.56089801 341.66669
3.7189598 0.50377488 0.47081301 327
4.038373 -0.21870472 0.65493 387
4.0515051 -0.21938443 0.70230734 385
4.0592279 -0.07437136 0.65496171 375
4.0494933 0.072651163 0.74687779 275
4.0179777 0.20916836 0.69943541 342.25
4.0150442 0.37391156 0.6798172 313.5
4.0554547 0.45192599 0.6616264 291
4.1158028 -0.2220545 0.80227822 301
4.1324868 -0.057827692 0.75470179 318.66669
4.018157 0.11285068 0.83627403 1029
4.1248064 0.063763849 0.8013314 277
3.9789407 0.1682563 0.83223081 2789
4.0587788 0.25766087 0.84331036 333
3.9800663 0.33755878 0.83605647 2293
4.10432 0.40475321 0.80573106 305.5
4.1730356 0.46809831 0.76655996 279
4.0504398 0.14652611 0.93266904 341
3.983485 0.25465989 0.98462737 391.66669
4.0662861 0.19944385 0.96638584 390.66669
4.1372919 0.44237953 0.95288908 350
3.9785256 0.21577601 1.1373017 278.20001
