# .PCD v0.7 - Point Cloud Data file format
VERSION 0.7
FIELDS x y z intensity
SIZE 4 4 4 4
TYPE F F F F
COUNT 1 1 1 1
WIDTH 1
HEIGHT 48
VIEWPOINT 0 0 0 1 0 0 0
POINTS 48
DATA ascii
3.3114629 0.59569758 0.10859251 363
2.2400966 0.27232778 0.1031699 716
2.3739965 0.29195556 0.13369323 425.66669
2.3491635 0.34553212 0.046978772 383
2.4813962 0.3857789 0.084565759 422.16669
2.5968211 0.44310787 0.028923988 325
2.627111 0.45861325 0.024292499 305
2.4444332 0.28635812 0.23559092 427
2.4594698 0.35729119 0.23546153 450.5
2.8053291 0.10837632 0.40381154 331.33334
2.8893728 0.11669773 0.38306713 312
2.5100613 0.28525561 0.36056727 358
2.6471555 0.25515658 0.40748739 376.5
2.7373044 0.1811087 0.3846364 349.5
2.4857073 0.35653442 0.38979623 469.5
2.5540655 0.45013952 0.39193171 363
2.7955921 0.097910218 0.54248077 343.39999
2.8720369 0.048295118 0.53998935 312
2.6343579 0.26572001 0.50102776 383
2.7426372 0.21309182 0.53499007 418.33334
2.8794188 0.21548837 0.5747062 367
2.5278826 0.36194283 0.49956614 467
2.5872853 0.33494404 0.50107485 327
2.704854 0.35531583 0.56699103 347
2.8672047 0.37831187 0.57892579 352.33334
2.9156682 0.45152205 0.58505744 285
2.84411 0.079663254 0.63333762 358
2.8874764 0.082065545 0.6802026 456
2.8857808 0.21266328 0.6715976 499
2.8305993 0.43192866 0.6422888 315
2.8880978 0.35556066 0.68028295 445.88889
2.9099836 0.45701072 0.68372864 437
2.8274453 0.1200488 0.81927538 2429
2.8958652 0.087957166 0.79859084 407.66669
2.8339932 0.21804419 0.80733645 1693.5
2.8846891 0.21223667 0.81309634 567.57147
2.8422947 0.37614706 0.76807749 1689
2.903368 0.36056808 0.82583195 454.11111
2.9002738 0.45644611 0.78053963 1469
2.9883764 0.12996441 0.91151696 394
2.8022761 0.23582634 1.0259142 373.5
2.8938298 0.26713002 0.95924693 319
3.0044029 0.20310394 0.91635865 319
2.8135676 0.32116216 0.98467517 391.66669
2.8966732 0.36617929 0.96467078 329.33334
2.7994137 0.26505947 1.0735925 388.33334
2.8074102 0.32345948 1.1046354 389.20001
2.8762374 0.39714858 1.1023297 291.66669
