# .PCD v0.7 - Point Cloud Data file format
VERSION 0.7
FIELDS x y z intensity
SIZE 4 4 4 4
TYPE F F F F
COUNT 1 1 1 1
WIDTH 1
HEIGHT 54
VIEWPOINT 0 0 0 1 0 0 0
POINTS 54
DATA ascii
7.858911 -1.2824904 0.028517604 276
6.700119 -0.37511784 0.072225153 278
6.6864696 -0.21336448 0.071842909 287
6.3994398 -0.0080140494 0.085575819 241
6.5348101 -0.076900117 0.07891947 295
6.5277996 0.078392044 0.079270422 259
6.439868 0.39501309 0.085377991 279
6.4744625 0.31430894 0.082989514 251
6.3592572 0.46041295 0.090062439 424
6.7023821 -0.37375188 0.22182024 300
6.5982227 -0.18071425 0.22317874 909
6.7062058 -0.24253517 0.22065711 299
6.4474654 -0.068452388 0.22679561 295
6.4548221 -0.01509406 0.2265408 283
6.4568939 0.40139547 0.22865665 275
6.4070988 0.45492086 0.23061287 283
6.7376275 -0.37408137 0.37372178 289
6.6781764 -0.18943302 0.37234879 295
6.7536883 -0.23584175 0.37241948 291
6.4366736 -0.061029218 0.37255597 267
6.4589357 -0.022051526 0.3724426 287
6.5592971 0.092338905 0.37228 410
6.6526947 0.2597281 0.37289655 249
6.4277554 0.44734615 0.37563062 281
6.4955521 0.40913743 0.37490249 263
6.4248013 0.56835377 0.37754571 265
6.7457013 -0.35656711 0.52897942 285
6.768786 -0.39032894 0.52987897 281
6.7325468 -0.21206346 0.52733481 300
6.4825444 -0.029052431 0.52130973 257
6.6585217 0.11479673 0.52524054 268
6.638339 0.28091726 0.52593201 360
6.4898086 0.44268063 0.52485371 269
6.649404 0.42452401 0.52787507 388
6.7580619 -0.37167507 0.68725216 282
6.7241063 -0.20352088 0.68391097 299
6.7695551 -0.21956111 0.68609607 253
6.6692381 0.12152111 0.68092179 401
6.7693744 0.10914022 0.68541241 277
6.677659 0.28121144 0.6825189 732
6.805306 0.4401975 0.69040585 263
6.823184 0.45679602 0.69148219 440
6.7286897 -0.36672485 0.84394407 237
6.7497339 -0.21059881 0.84354365 247
6.663394 0.11368679 0.83686697 2221
6.8499041 0.11729527 0.8499043 289
6.6591787 0.28045082 0.83794975 2049
6.8366947 0.28548083 0.85036325 275
6.8066187 0.44611254 0.85067439 281
6.6952839 0.12113447 0.99669278 322
7.0718222 0.11279407 1.0321661 379
6.8277869 0.27914909 1.0106081 245
6.9983296 0.29859102 1.0269034 451
6.9853292 0.13343327 1.1889036 504
