# .PCD v0.7 - Point Cloud Data file format
VERSION 0.7
FIELDS x y z intensity
SIZE 4 4 4 4
TYPE F F F F
COUNT 1 1 1 1
WIDTH 1
HEIGHT 92
VIEWPOINT 0 0 0 1 0 0 0
POINTS 92
DATA ascii
4.7950611 -1.9186071 0.109474 246
3.1400602 -0.65400177 0.064456336 2191
3.1741149 -0.60724396 0.05979836 499
3.1763666 -0.52579755 0.09336035 505.28574
2.8140893 -0.31056216 0.084560409 513.5
3.08219 -0.36102289 0.097266391 1866
3.1759269 -0.4345265 0.077212088 528.33337
2.8392596 -0.24946593 0.083511882 523.79999
2.8520863 -0.2655715 0.14761412 479
3.016747 -0.21181735 0.13153487 283
2.8377306 0.29437879 0.041053593 545
2.87988 0.28013963 0.090030462 505.66669
2.8154037 0.36312839 0.065755069 527.40002
2.8734021 0.30126148 0.11799273 550
3.0021994 0.43938106 0.076541781 269
3.1976068 -0.63276029 0.22042984 1197
3.2120674 -0.51810473 0.21651278 491.75
2.8637273 -0.3034066 0.2044 549
3.1798334 -0.39740449 0.21602663 1390.5
2.8436525 -0.26657933 0.20538163 517
2.8819292 -0.24199209 0.242048 509.66669
3.2927263 -0.19740449 0.1719965 148
3.3320384 -0.19557086 0.23881513 196
3.0582976 0.038639199 0.25155473 1327
2.8896494 0.27067757 0.2320202 484
3.0660052 0.25544611 0.25280288 238
2.8256373 0.34951448 0.15111285 526
2.869812 0.33707619 0.23433617 510.66669
3.2297263 -0.63394523 0.35879219 599
3.2388217 -0.51807153 0.35480019 503.5
3.2060061 -0.39732194 0.35182953 1398
2.8962119 -0.25123259 0.37277371 508.80002
3.0708456 -0.16436036 0.33858404 297
3.1031089 -0.071717039 0.36312896 335.85715
3.2008953 -0.079812691 0.31271923 267
3.1091928 0.082426503 0.37248099 343.85715
3.2531631 0.06905207 0.31128973 285
2.9273491 0.25654331 0.37241217 488.20001
3.0496387 0.19534864 0.35026804 390
2.9004941 0.33081123 0.36570543 519.66669
3.2595797 -0.63424546 0.50476962 511
3.2397764 -0.51332343 0.49880469 473.25
3.2005053 -0.39278212 0.49359095 2224.5
3.1101182 -0.15504856 0.45093787 303
3.2299764 -0.17083383 0.5440008 353
3.3360806 -0.17004333 0.53039628 889
3.1293075 -0.042977951 0.49726224 1200.3334
3.1948462 -0.04983975 0.51307911 793.28577
3.0977249 0.12712282 0.47336298 411.66669
3.2119377 0.066177197 0.5359205 995.66669
3.0540316 0.20194253 0.45042038 335
3.2310238 0.21859173 0.54111874 454
3.3190906 0.2166793 0.53034514 273
3.2796211 -0.63425779 0.64315784 484.33334
3.3039944 -0.6313293 0.69544458 477
3.1991165 -0.50126916 0.64259803 364.5
3.2530556 -0.39594224 0.6422959 418
3.2636988 -0.17111745 0.67395413 361
3.3286128 -0.1694231 0.68002188 415
3.2584991 -0.063883506 0.68669355 865
3.2576215 0.098220326 0.68845779 853.88892
3.3076274 0.13071017 0.6774891 429
3.2705479 0.20447253 0.67521012 421
3.3020649 0.21043693 0.67828298 415
3.2909398 -0.63800383 0.80824888 437
3.3646951 -0.63376588 0.81788576 310
3.2400773 -0.4982731 0.77143377 349.80002
3.3124166 -0.51566774 0.84114742 305
3.2865899 -0.39207503 0.75682288 659
3.3357234 -0.40445989 0.81328773 317.66669
3.3180075 -0.17026162 0.79127014 417.5
3.2293115 -0.064704068 0.81434941 2410
3.3286219 -0.047109239 0.82847065 414
3.236279 0.081763893 0.81550193 2772
3.3261762 0.10503432 0.82861185 375
3.2898099 0.20142864 0.75121927 443
3.3232131 0.21006572 0.80515546 409.66669
3.3619144 -0.4935925 0.92236084 237
3.3395524 -0.18304293 0.9060095 355
3.4729972 -0.16428229 0.92788893 303
3.2842889 -0.001045336 0.96690792 323
3.3564746 -0.053060718 0.9220193 361
3.2851293 0.0022298505 1.0381098 311
3.3629911 0.081901304 0.95039988 332.42859
3.3180602 0.19463605 0.90269339 385
3.2789667 -0.050896965 1.1511401 302.33334
3.4005392 -0.056407377 1.0987577 265
3.258868 0.01769837 1.1347562 318.5
3.3605447 0.079306379 1.0899572 243
3.2609668 -0.053483538 1.2545323 321.66669
3.2374363 0.018345028 1.2473822 368.33334
3.3994386 0.084821269 1.2052563 259
