# .PCD v0.7 - Point Cloud Data file format
VERSION 0.7
FIELDS x y z intensity
SIZE 4 4 4 4
TYPE F F F F
COUNT 1 1 1 1
WIDTH 1
HEIGHT 58
VIEWPOINT 0 0 0 1 0 0 0
POINTS 58
DATA ascii
2.8316796 -0.25089613 0.095407628 515.79999
2.8585985 -0.24215852 0.091326654 517
2.8428874 0.29806918 0.09359926 555
2.8799255 0.28730795 0.076391876 504.5
2.8142002 0.3647365 0.065919049 525.40002
2.8619776 0.36233813 0.12913266 504.33334
2.8270023 -0.30230042 0.20792878 549
2.8499162 -0.2641367 0.20489421 531
2.8927779 -0.2358219 0.24645263 519.5
2.9022746 0.27476764 0.23130803 507
2.8305452 0.33784926 0.17896956 516
2.8763633 0.331029 0.23384809 523
3.004559 0.39443892 0.25824291 277
2.9105787 -0.25096244 0.37282154 490
3.0316987 -0.15879518 0.35035539 360.25
3.1117122 -0.050244968 0.35345188 380.42859
3.1041548 0.082278088 0.36549872 375.5
2.9350579 0.2577357 0.37237498 496.20001
3.0300136 0.19414726 0.38365245 416.5
3.1656919 0.21988037 0.31486112 273
2.8836138 0.32153708 0.37419587 562.20001
3.0859771 -0.15703224 0.4504593 307
3.2388105 -0.16972092 0.54395819 376
3.3318892 -0.17338736 0.53025281 1059
3.1167715 -0.095038697 0.45050645 377
3.2091432 -0.046853244 0.5239411 920
3.1097655 0.12649718 0.47366437 409.66669
3.2236843 0.068873383 0.53665221 588
3.1102166 0.26240191 0.45264256 259
3.2469482 0.20748384 0.52681506 346.75
2.9204094 0.3172015 0.45010725 226
3.2891879 -0.16996196 0.67633009 399
3.2583392 -0.059233759 0.69655162 876.77777
3.2648084 0.089080766 0.70450026 835.57147
3.3174434 0.13485727 0.65360808 395.66669
3.2862601 0.20870961 0.63980621 398
3.3077636 0.21450172 0.67890012 421
3.3229511 -0.17062345 0.79184735 417
3.2634888 -0.063256241 0.81923771 2173
3.3395541 -0.047196943 0.83002245 420
3.2571001 0.082328163 0.81847405 2399
3.3419108 0.10782263 0.83090127 351
3.2963147 0.19877967 0.82589298 431
3.3586805 0.21696495 0.78556079 369.66669
3.4121795 -0.19097421 0.91829944 317
3.2661786 -0.013552688 1.0105079 322.33334
3.3785896 -0.051669408 0.92581552 338.20001
3.2584939 0.037010714 1.0324819 319
3.35287 0.069413938 0.92488354 336
3.3327408 0.19682249 0.90519249 339
3.2616262 -0.047404535 1.146512 313
3.3531082 -0.068579853 1.1239209 273
3.2474732 0.017939981 1.1318297 343.5
3.3449492 0.080027148 1.0862799 245
3.2291899 -0.043641131 1.2248142 347
3.4588876 -0.063463293 1.2897574 496
3.2174306 0.017446334 1.2213682 353
3.3829608 0.085513078 1.2009785 269
