# .PCD v0.7 - Point Cloud Data file format
VERSION 0.7
FIELDS x y z intensity
SIZE 4 4 4 4
TYPE F F F F
COUNT 1 1 1 1
WIDTH 1
HEIGHT 59
VIEWPOINT 0 0 0 1 0 0 0
POINTS 59
DATA ascii
1.54772 -2.1066494 0.10992192 331
1.581519 -2.0467327 0.070987627 348.30435
1.6511804 -2.0284171 0.12753218 371
1.459308 -2.1182389 0.19302587 1058
1.5435827 -2.1234992 0.23774222 377.33334
1.5979774 -2.058533 0.22955105 422.71429
1.7005568 -2.0094211 0.23108822 501
1.6633188 -1.9177061 0.16588642 1417
1.9514093 -1.6692092 0.29920429 587
1.85325 -1.5796206 0.23454592 616
1.5726169 -1.4321572 0.21466361 523.10529
1.7219691 -1.4120494 0.21050878 510.53848
1.8068544 -1.4209055 0.29982591 693
1.5657029 -2.128129 0.39473966 501.57144
1.6697052 -2.1108308 0.4261671 553
1.6015315 -2.0531914 0.35182723 571.66669
1.6851525 -2.0433843 0.37189704 574
1.6385087 -1.9458348 0.41348994 1991
1.7625773 -1.8282032 0.38753355 1077
1.8290827 -1.896242 0.38585553 287.5
1.780527 -1.7317047 0.38688329 639.79999
1.902037 -1.6691853 0.30531731 291
1.602934 -1.5301986 0.40097517 554
1.792779 -1.5224555 0.38058919 433
1.8317482 -1.5448104 0.3537761 429
1.6188258 -1.467229 0.35202244 666.14288
1.7323602 -1.4279575 0.37639889 622.09094
1.831036 -1.42591 0.36800608 662
1.570104 -2.1529644 0.52357286 969
1.6056943 -2.0775611 0.5071913 571
1.6961236 -2.010653 0.52777535 1367.3334
1.8385689 -1.9814438 0.50988185 262
1.7418356 -1.8299162 0.51275408 1200
1.7444649 -1.749122 0.53383082 621
1.8459126 -1.7377871 0.54586214 479
1.642946 -1.5656252 0.47302362 425
1.7210653 -1.5534966 0.48249739 575
1.8655415 -1.5962609 0.52494854 411.60001
1.9702263 -1.6065298 0.45238614 1425
1.7267354 -1.4971416 0.45774287 513
1.5862148 -2.1550415 0.65969533 711
1.6961527 -2.1253772 0.73140281 503.66669
1.706596 -2.0482929 0.65303355 777.66669
1.8071481 -2.0338831 0.70663166 347
1.7402835 -1.8714545 0.67144144 444.75
1.8299441 -1.8644034 0.68207759 506.14288
1.8826014 -1.7472755 0.67120081 457.18182
1.8767494 -1.639312 0.63057482 391
1.7541456 -1.9918272 0.80107003 390.20001
1.8231231 -1.992298 0.88918167 208
1.7543745 -1.8753523 0.82498914 1707.8572
1.867202 -1.8429835 0.8145963 855.40002
1.8899425 -1.7533716 0.83037746 892.14288
1.878643 -1.8497341 0.96020544 508.81821
1.789165 -1.858119 1.1541409 393
1.8579333 -1.8716764 1.1046407 313.66669
1.7774982 -1.7628807 1.1195364 513.66669
1.8375546 -1.7750069 1.1392963 458.80002
1.7830672 -1.7843122 1.2367592 403
