# .PCD v0.7 - Point Cloud Data file format
VERSION 0.7
FIELDS x y z intensity
SIZE 4 4 4 4
TYPE F F F F
COUNT 1 1 1 1
WIDTH 1
HEIGHT 62
VIEWPOINT 0 0 0 1 0 0 0
POINTS 62
DATA ascii
4.3491201 0.63908923 0.10075101 300
3.9484029 -0.21586707 0.08396291 415.75
3.9406948 -0.083255969 0.089828104 404.14288
3.9673259 0.028169837 0.067984015 1025
3.8957684 0.19399548 0.048272312 222
3.3614128 0.32539335 0.099878132 385
3.5209105 0.38075328 0.050728038 327.5
3.5767698 0.46816397 0.081112295 393
3.9513659 -0.2139691 0.25099915 1117
3.9781499 -0.072483048 0.24921328 423.75
3.9456296 0.069869049 0.25051141 1178
3.5651474 0.29728383 0.15311491 396
3.9735675 0.24625055 0.29348284 428
3.5358796 0.3712388 0.18613951 399.39999
3.6341708 0.36969805 0.22590464 312
3.5784566 0.47029105 0.15454373 395
3.6301012 0.47945726 0.22799677 427
3.9673085 -0.21342996 0.38068971 1317
4.006711 -0.07259386 0.37959096 408.5
3.9807918 0.070106953 0.37960112 1225.5
3.8616915 0.25137156 0.38149086 365
4.0506296 0.18156473 0.38010436 294
3.5760951 0.32936519 0.34479567 389
3.654983 0.3839784 0.3445648 358.5
3.7593718 0.37933886 0.34285069 265
3.6475742 0.49885577 0.34730515 378
3.9972398 -0.21368197 0.51545942 1461
4.0152683 -0.072211228 0.51490074 382
4.0341291 0.061590008 0.5154376 878
4.0997314 0.080971152 0.51777369 280
3.8903835 0.25252628 0.5565601 1593
3.955162 0.2073763 0.51405919 679
4.1209302 0.1797218 0.47229213 220
3.6641402 0.37552583 0.46627823 316
3.8272057 0.38139838 0.51254928 678
3.9376497 0.38913897 0.56162602 316
3.633836 0.50194252 0.46915251 407
4.0568185 0.54598826 0.47850615 323
4.0125065 -0.21378541 0.68357301 1360.3334
4.0429602 -0.076126583 0.70000333 371
4.0628099 -0.073594131 0.67846364 372.5
4.0645843 0.070646681 0.65523851 357.5
3.9831953 0.20860927 0.69672906 505.25
3.9683678 0.38470635 0.69041556 319.39999
4.0663166 0.50210583 0.66412807 307
4.1140165 -0.21932761 0.80164886 303
4.1302953 -0.075364038 0.80159354 327.5
4.1112819 0.069086894 0.78425163 279.66669
3.9776707 0.19781068 0.83263326 399
4.0717392 0.22157054 0.84421313 328
4.0287642 0.35318995 0.81118393 508.33334
4.0546985 0.44301003 0.84830356 315
4.1176004 0.46104428 0.80901527 320
3.9454017 0.14716998 0.91765553 1911
3.9987557 0.23731227 0.98124164 845.20001
3.9958439 0.38182741 0.93074715 1150
4.051116 0.33197895 1.0285559 325
3.9698188 0.23993158 1.1300067 332.33334
4.1106339 0.18396784 1.1268274 265
3.978179 0.31715623 1.1486641 368.5
4.019423 0.24897088 1.2424572 262
4.0203099 0.31234017 1.2882109 285
