# .PCD v0.7 - Point Cloud Data file format
VERSION 0.7
FIELDS x y z intensity
SIZE 4 4 4 4
TYPE F F F F
COUNT 1 1 1 1
WIDTH 1
HEIGHT 73
VIEWPOINT 0 0 0 1 0 0 0
POINTS 73
DATA ascii
6.4350653 -1.8067967 0.12100375 344
4.9297991 -0.67440975 0.058576941 1871
4.9647226 -0.61758596 0.055073798 311
4.948503 -0.48956352 0.054454207 317
4.9649591 -0.55011064 0.054054379 321
4.7606521 -0.35175967 0.066631794 435
4.953702 -0.43625832 0.053443551 323
4.6619053 -0.25790384 0.073049247 303
4.6668129 0.27807751 0.072825432 313
4.6350756 0.33253378 0.075587392 311
4.9342403 -0.66662765 0.16514111 1955
4.9871888 -0.63824254 0.23562169 761
4.9925809 -0.52029288 0.21484409 311.5
4.977016 -0.40099472 0.21362241 771.5
4.6484628 -0.28424531 0.17386043 329
4.6768656 -0.24747211 0.24043456 315
4.8511806 -0.17219839 0.26946199 289
4.9980798 -0.050617587 0.26508409 281
5.0019646 0.060373209 0.26500052 289
4.6764126 0.28442362 0.22398904 317
4.8777971 0.20487291 0.26898915 316.5
4.665103 0.32504344 0.22476029 314
4.9953108 -0.64387393 0.38495427 898
5.0231056 -0.52009416 0.38194555 314
4.9741507 -0.39796397 0.37987307 1499
4.7344499 -0.25886509 0.37877214 278
4.949904 -0.16978851 0.3773073 265
4.8838496 -0.14030431 0.37731367 299
4.9868536 -0.032238368 0.3766374 304
4.9039078 0.099775478 0.3770541 307
4.977531 0.065125175 0.37672567 295
4.7333312 0.29374799 0.37918115 275
4.8724599 0.20323569 0.37780371 295
4.6776586 0.3162263 0.37965965 317
5.0420375 -0.64722407 0.50031042 436
5.0346313 -0.51890719 0.49679413 313
4.9866686 -0.39711165 0.4932968 1725
5.29561 -0.30468363 0.49820745 544
4.862072 -0.2513271 0.48853552 255
5.0725503 -0.15079372 0.49200857 319
5.230845 -0.17352472 0.4954983 297
4.9158001 -0.038776692 0.48821867 2567
4.9868817 -0.024710748 0.4896999 309
4.9444351 0.069648974 0.48890102 1707
4.9649796 0.095317192 0.48943239 629
5.0562558 0.21067165 0.49215943 1223.5
4.7668562 0.31601787 0.48743612 233
5.0523124 -0.6451658 0.65697348 331.66669
5.1468716 -0.65305316 0.74232602 305
5.0777693 -0.51983452 0.67429167 287
5.0677166 -0.40108377 0.67088485 313.5
5.0212803 -0.20857388 0.66559058 303
5.1908011 -0.16166097 0.67389393 279
5.344861 -0.17095967 0.62118822 273
5.0091653 -0.031976562 0.66330814 1166
5.0318117 0.082562387 0.64500922 1031
5.1004453 0.086343147 0.72762644 295
5.0518222 0.20893301 0.66694844 300
5.1547928 -0.66058379 0.86406183 271
5.1179848 -0.52925092 0.85598034 275
5.1498718 -0.40828484 0.85553145 299
5.1496444 -0.1595698 0.85126317 299
5.0147438 -0.040341586 0.83781391 1309
5.2070041 -0.024161506 0.85592467 275
5.0441093 0.079609856 0.84072995 883
5.2082391 0.08898697 0.85625964 287
5.1123252 0.21006307 0.84831214 287.5
5.1480045 -0.03264771 0.97005522 266
5.1996646 0.07635159 0.97634572 291
5.0394034 -0.025289062 1.1500618 297
5.1003833 -0.051314138 1.0822196 261
5.0184698 0.078778625 1.1281004 328.5
5.1150012 0.069343232 1.0843918 281
