# .PCD v0.7 - Point Cloud Data file format
VERSION 0.7
FIELDS x y z intensity
SIZE 4 4 4 4
TYPE F F F F
COUNT 1 1 1 1
WIDTH 1
HEIGHT 55
VIEWPOINT 0 0 0 1 0 0 0
POINTS 55
DATA ascii
0.84495854 -2.9048419 0.12226637 229.5
5.3259401 -1.5615649 0.05247885 297.66669
5.3807645 -1.4436674 0.044174194 305
5.4584765 -1.3740586 0.036004126 299
5.1950788 -0.9132762 0.043639183 289
5.215013 -0.85789824 0.040981114 367
5.4100566 -0.80800045 0.14376384 281
5.224586 -1.6040645 0.1802519 1235
5.324975 -1.5364521 0.23325685 286
5.4221816 -1.5181556 0.22810856 296
5.448319 -1.4073389 0.22217165 569.5
5.2296119 -0.95074821 0.19574425 275.66669
5.264853 -0.92968655 0.27232772 301
5.3229923 -0.86185205 0.20916346 303
5.428772 -0.81329316 0.26430547 297
5.2330217 -1.6054968 0.30118304 1849
5.3098459 -1.5696046 0.42150372 1066
5.4424028 -1.5228804 0.41738123 303
5.4327345 -1.3931496 0.41073647 1318
5.4534225 -1.2326993 0.40297943 274
5.4912801 -1.1149427 0.39772731 291
5.5587745 -1.1529763 0.39878178 291
5.2719488 -0.94526863 0.39276248 308
5.3767424 -0.8560757 0.38915235 309
5.4417734 -0.81758863 0.38762087 307
5.3653526 -1.6552738 0.55446547 311
5.2817936 -1.6181262 0.55110025 1563
5.4331646 -1.5268965 0.54699349 297
5.4484448 -1.3905354 0.5391748 1678
5.3718162 -1.2135739 0.5286442 2793
5.5465355 -1.2905235 0.53519017 299
5.4718223 -1.1116499 0.52536476 291
5.5594931 -1.141379 0.52814603 291
5.4430199 -0.96591932 0.51868129 275
5.551434 -1.0005854 0.52195543 275
5.3611326 -1.6406019 0.68366617 814
5.4683723 -1.5297168 0.67946923 299
5.5825987 -1.4197264 0.67642963 349
5.5166316 -1.2481654 0.66373926 317
5.5862083 -1.2875586 0.6686607 307
5.6204224 -1.1433922 0.66224921 305
5.6905026 -1.0135452 0.65892732 261
5.7421455 -1.0253493 0.66158509 277
5.4662952 -1.6660691 0.82284212 352.5
5.4693785 -1.5221597 0.81169856 295
5.59727 -1.4165401 0.81174779 339.5
5.494812 -1.2480253 0.79436481 1159
5.6491079 -1.1438584 0.79798025 303
5.6133699 -1.2699984 0.93806612 305
5.5812168 -1.1369958 0.92663598 1041
5.7434535 -1.1447465 0.94138384 394
5.4998765 -1.2439833 1.1900781 283
5.5824242 -1.2563715 1.0686927 291
5.5146832 -1.1237267 1.1828542 410
5.6167808 -1.2445552 1.205793 299
