# .PCD v0.7 - Point Cloud Data file format
VERSION 0.7
FIELDS x y z intensity
SIZE 4 4 4 4
TYPE F F F F
COUNT 1 1 1 1
WIDTH 1
HEIGHT 79
VIEWPOINT 0 0 0 1 0 0 0
POINTS 79
DATA ascii
6.3732271 -1.7353983 0.12160522 322.5
4.9204321 -0.66943133 0.059180856 1941
4.9755139 -0.61189538 0.05419302 307
4.9655952 -0.52098006 0.053626478 314
4.7499952 -0.34723774 0.067364693 459
4.9712372 -0.43067852 0.052103698 315
4.6125488 -0.28274214 0.076802313 319
4.6615429 -0.2303566 0.072876215 325
4.6357188 0.27987567 0.075097322 325
4.6375217 0.33984709 0.075477064 307
4.9327626 -0.66280162 0.16513932 1869
4.9797077 -0.63130713 0.23575453 639
5.0004816 -0.52131313 0.21462801 311
4.8603992 -0.35954082 0.16402853 451
4.976686 -0.40431508 0.23188341 527
4.6228924 -0.27716786 0.17507285 335
4.6691275 -0.24913624 0.24084604 314.33334
4.8373384 -0.16779891 0.26980203 291
4.9700203 -0.056542497 0.26583731 283
5.1602845 -0.0086964816 0.2607531 503
4.9738746 0.067565717 0.26575965 283
5.1469436 0.11519586 0.26133174 658
4.6896281 0.28906059 0.22345316 312
4.8516798 0.18510787 0.26953274 295
5.1905627 0.23787399 0.26091194 499
4.6765299 0.33303481 0.22433192 315
5.0039454 -0.63969529 0.38480821 702
5.0340133 -0.52134728 0.38193229 314
4.9621601 -0.39144403 0.37980944 1650
4.7314634 -0.25887787 0.37877795 282
5.0000138 -0.16760287 0.37714398 291
4.9125123 -0.073328264 0.37700957 296
4.9997029 -0.051272299 0.37662971 301
4.9178181 0.10401583 0.37703174 295
5.0024176 0.073036753 0.37667674 293
4.7824974 0.25626415 0.37862664 291
5.0199232 0.19642259 0.37729633 349
4.6671739 0.32254946 0.37978226 319
5.0491867 -0.64283824 0.50032127 346
5.0365958 -0.51920867 0.49684316 312
4.9866271 -0.3916741 0.49319693 1627
4.9206762 -0.26850367 0.48996416 359.5
5.2219977 -0.16903834 0.49527889 281
4.936739 -0.045075536 0.48867333 2533
5.0243411 -0.081355959 0.49071389 310
4.9453177 0.07710845 0.48894501 1361
4.9968834 0.099953897 0.49012595 695
5.0816059 0.20349194 0.49261862 835
5.1318321 0.22187726 0.49384433 315
4.8052363 0.32597712 0.48837918 237
5.0699215 -0.64163655 0.65772712 313.66669
5.1226435 -0.64614141 0.74044561 313
5.0628619 -0.51835442 0.67347586 299.5
5.0411472 -0.39432809 0.61063457 326
5.1140728 -0.3984127 0.73275375 295
5.0599027 -0.15123849 0.72522724 377
5.1913199 -0.19614407 0.65444481 381.33334
5.2711205 -0.16427229 0.61779511 259
5.0069175 -0.032196585 0.66312802 1178.5
5.0523586 0.089351565 0.66588521 834.5
5.0257788 0.20492785 0.6653018 303
5.1457376 0.21556056 0.67194402 308
5.1527905 -0.65319836 0.86358863 293
5.1137047 -0.52266955 0.85537475 293
5.1333303 -0.40305811 0.85385966 299
5.0849633 -0.15776646 0.84515023 311
5.010807 -0.034613907 0.83742923 1975
5.2113366 -0.09015248 0.8566637 279
5.0181594 0.083126284 0.83829987 1447
5.2011228 0.096606165 0.85563052 299
5.1002555 0.20114191 0.84706467 299
5.1884718 -0.16582975 0.97572166 424
5.1519895 -0.032819953 0.97052503 273
5.1678262 0.079912163 0.97257966 287
5.0407214 -0.027441492 1.1503266 291
5.1034117 -0.045596894 1.0826335 265
5.0509539 0.066770524 1.1907037 283
5.1111803 0.088956952 1.0839646 279.5
5.0783095 0.061587952 1.3104253 390
