# .PCD v0.7 - Point Cloud Data file format
VERSION 0.7
FIELDS x y z intensity
SIZE 4 4 4 4
TYPE F F F F
COUNT 1 1 1 1
WIDTH 1
HEIGHT 65
VIEWPOINT 0 0 0 1 0 0 0
POINTS 65
DATA ascii
4.4131522 0.7164135 0.06700027 341
3.9615915 -0.20669273 0.074674964 410.60001
3.963553 -0.075860843 0.095707759 424.33334
3.9197085 0.042994022 0.085666075 1180.25
3.4317698 0.33237615 0.059530914 352
3.5227034 0.40043765 0.085399881 392
3.6077182 0.46830112 0.042174399 373
3.9548883 -0.21785119 0.25079224 1176.5
3.9873319 -0.075661182 0.24875668 427
3.972398 0.068098478 0.24934968 1219.5
4.0087337 0.24469373 0.29252356 275
3.5585289 0.37160444 0.18462873 389
3.6419911 0.3670665 0.22546861 317
3.833178 0.32340342 0.2982744 319
3.6419797 0.49122652 0.20213985 353.66669
3.9765778 -0.21766163 0.38070768 1325
4.0041618 -0.07539624 0.37960765 405.5
4.0168333 0.068467334 0.37949085 1035.5
3.8565874 0.25987801 0.38162106 337
3.9050121 0.24095212 0.38121068 359
4.0757713 0.17918047 0.3800059 298
3.5875301 0.33015713 0.30505788 425
3.6640465 0.37302595 0.35199353 349
3.7847924 0.43814975 0.38523364 279
3.6502399 0.49617881 0.34712332 381
4.0025115 -0.21764715 0.51578236 1467
4.0171523 -0.063157402 0.5058403 384.60001
4.0562811 -0.096064404 0.53165412 379
4.0476975 0.058766671 0.46993619 477
4.1043787 0.072713062 0.53329039 292.33334
3.9547524 0.2115439 0.52048194 720.42859
4.1151056 0.1758385 0.47213149 238
3.6640167 0.37211373 0.46619451 324
3.8485942 0.38093305 0.51357853 943.5
3.9696453 0.39037508 0.56307238 309
3.657027 0.50233066 0.46960032 403
4.1215734 0.55790371 0.52773118 400
4.2476349 0.57152587 0.5805431 441
4.0256338 -0.21796882 0.70018423 1857
4.066226 -0.22086342 0.65689647 577
4.0438967 -0.12516561 0.70052755 374
4.073482 -0.053157203 0.67921627 377
4.0622873 0.067146502 0.68602031 339.33334
3.9970074 0.2067111 0.69799703 372.5
3.973316 0.3826817 0.67229432 320.20001
4.0656242 0.54885578 0.66571242 321
4.1088362 -0.22275704 0.80114758 315
4.1064501 -0.064255349 0.81492221 251.33334
4.2185555 -0.12113936 0.7631734 259
4.1384478 0.070061021 0.81853145 291
4.0026727 0.18665403 0.83539522 593
4.0596704 0.26630735 0.84360373 321
4.0097828 0.37730294 0.81001282 705.66669
4.0684004 0.39953211 0.80174804 307
4.1793833 0.46771613 0.8156935 283
3.9475167 0.14388479 0.9179129 3011
3.9834194 0.24481079 0.98493695 893
4.0815554 0.22163418 0.93848681 396.5
3.9809475 0.37682599 0.92846185 1549
4.1131082 0.38402224 1.040772 238.5
3.9591718 0.2221891 1.1422007 290.25
4.0558505 0.17823006 1.116258 303
3.9759455 0.31375396 1.1484811 261.5
4.0297718 0.24720863 1.2449533 285
4.0021672 0.3076494 1.2837467 289
