# .PCD v0.7 - Point Cloud Data file format
VERSION 0.7
FIELDS x y z intensity
SIZE 4 4 4 4
TYPE F F F F
COUNT 1 1 1 1
WIDTH 1
HEIGHT 53
VIEWPOINT 0 0 0 1 0 0 0
POINTS 53
DATA ascii
3.546118 0.29775986 0.082092762 334
3.578836 0.36944747 0.044434682 308
3.6330171 0.37804967 0.1119532 287
3.5617144 0.46798408 0.082545519 389
3.980083 -0.069115475 0.24908218 424.25
3.939019 0.065184742 0.26478931 1504.6667
3.9355252 0.24582241 0.29449767 307
3.5432301 0.38303733 0.19339931 407
3.6734221 0.31452712 0.22304457 297
3.6168427 0.47862539 0.19035289 403
3.963516 -0.20958692 0.38066074 1265
4.0010242 -0.069071338 0.37959492 405.5
3.9767363 0.073112436 0.37962323 1147.5
3.8343151 0.26280573 0.38173652 705
3.93156 0.24859923 0.38122189 393
4.1013074 0.18942277 0.38002223 422
3.5775838 0.36190647 0.30589998 386
3.6550758 0.36061183 0.35174096 365.80002
3.77615 0.44277173 0.38538122 293
3.6539612 0.50345737 0.34726259 383.5
3.9936996 -0.20980258 0.51545405 1061.5
4.023622 -0.06182218 0.50859576 381.57144
4.0531888 -0.1196743 0.56228393 373
4.0169244 0.073533669 0.46934617 519.5
4.0948153 0.074710935 0.56389445 289
3.8759127 0.2515015 0.51200533 756
3.9624748 0.20239697 0.52324754 818.20001
3.6883416 0.36309919 0.49459666 322.33334
3.8173323 0.39733502 0.49822992 964.33337
3.9292507 0.39257979 0.56134224 316
4.0156684 -0.20869875 0.6994611 717
4.0725498 -0.21521065 0.6572488 507
4.0288062 -0.088864923 0.71450555 374.33334
4.0604634 -0.052517727 0.65494132 363
4.0754967 0.073944643 0.65601695 273.5
3.9913197 0.21266885 0.69754553 584.25
3.9682007 0.3911207 0.69317812 315.85715
4.1346645 -0.058430962 0.81822842 301.33334
4.0356207 0.078971088 0.83801234 366
4.1274905 0.072248206 0.78575706 291
4.0042019 0.20371538 0.83587563 366
4.0602121 0.22307509 0.84287614 354
3.9986496 0.35177052 0.83866608 823
4.0623164 0.44619295 0.84931165 291
4.1023288 0.062565148 0.93929535 352
3.9943471 0.22664604 0.97119272 913.5
4.0775509 0.22861895 0.98442894 339
3.9784064 0.38203436 0.92828715 1563
4.0597515 0.33501104 1.0300889 333
3.9630275 0.24259993 1.1290493 331.66669
4.1007028 0.185908 1.1249688 275
3.9788833 0.31661367 1.1929967 313
4.1077576 0.38672894 1.0855198 291
