# .PCD v0.7 - Point Cloud Data file format
VERSION 0.7
FIELDS x y z intensity
SIZE 4 4 4 4
TYPE F F F F
COUNT 1 1 1 1
WIDTH 1
HEIGHT 80
VIEWPOINT 0 0 0 1 0 0 0
POINTS 80
DATA ascii
6.5582838 -1.9080349 0.1182996 314
4.9134579 -0.66887945 0.059684753 1917
4.9684014 -0.60459042 0.054602146 309
4.942338 -0.51833785 0.05528754 323
4.7588935 -0.3486053 0.066730201 449
4.9628601 -0.42359027 0.052636921 325
4.6381302 -0.2890127 0.074993551 307
4.6757245 -0.22646314 0.071823359 313
4.6606312 0.28102839 0.073296905 317
4.6032443 0.34324285 0.078002632 331
4.935667 -0.66366661 0.16500843 1919
4.9940987 -0.6291225 0.2352455 695
5.0062165 -0.52194989 0.21437356 316.5
4.9220824 -0.36506665 0.16099983 567
4.978025 -0.40047508 0.23166649 766.33337
4.6236005 -0.28178179 0.17507982 339
4.6685295 -0.24756086 0.24085817 318.33334
4.8393049 -0.1687222 0.2697556 289
5.0341849 -0.0326842 0.26410997 431
4.9367986 0.073229931 0.26675445 281
4.6657228 0.28705925 0.22426897 314
4.8578453 0.20363009 0.26950961 350.5
4.6426921 0.3365497 0.22562361 319
4.9983735 -0.63602161 0.38474202 774
5.0235839 -0.52028561 0.38194829 317
4.948945 -0.38758522 0.37979233 1814
4.7319441 -0.25895748 0.37878034 286
5.0059791 -0.16869722 0.37713379 283
4.9205894 -0.072803386 0.37697184 299
4.9967542 -0.046343748 0.3766284 301
4.9248309 0.1035322 0.37700945 295
4.9963183 0.079184987 0.3767131 293
4.7987647 0.21749392 0.37814611 289
5.0401077 0.19230823 0.37720364 349
4.7253604 0.31455672 0.37948555 299
5.0332203 -0.63774139 0.49986959 367
5.0276575 -0.51828045 0.49664137 313
4.9759054 -0.38798469 0.49291101 1792
4.807097 -0.24959779 0.48737103 245
5.2159705 -0.16975561 0.4951576 295
4.9097905 -0.040031243 0.48809403 2575
5.0419207 -0.080662936 0.4910675 308
4.9402137 0.083159111 0.48885977 1887
4.9839029 0.099028811 0.48984802 571
5.0698271 0.19803669 0.4923225 1639
5.1256075 0.2266098 0.49376154 432
4.9433818 0.34230313 0.491476 742
5.0694628 -0.63743877 0.65778506 319
5.1374135 -0.64856786 0.74152845 305
5.0590906 -0.51905406 0.65366763 293.66669
5.122787 -0.52140713 0.73646367 289
5.0433741 -0.39169514 0.61068094 356
5.139678 -0.39742941 0.73449814 285
5.0227904 -0.20777029 0.66564453 304
5.2106323 -0.15047573 0.73573053 273
5.2980466 -0.16609581 0.6190291 253
4.9430933 -0.02874173 0.60226542 1933
5.0158839 -0.033251189 0.68271732 948.33337
5.1548209 -0.14400183 0.61237395 291
5.0343451 0.091773696 0.66478634 832
5.0514178 0.20603797 0.68626589 291.66669
5.1219673 0.21991014 0.61157346 299
5.1487131 -0.64623201 0.86294371 287
5.1121721 -0.52748227 0.85538542 289
5.1471629 -0.40488246 0.8551954 293
5.0901494 -0.15147018 0.84557945 311
5.0177379 -0.039489724 0.83809447 1695
5.1839657 -0.087625496 0.85407859 275
5.0360885 0.082777016 0.8399893 1677
5.2099495 0.10317623 0.85650206 291
5.0980554 0.20596547 0.84691745 299
5.1266122 0.21372433 0.84970337 264
5.1380777 -0.15762645 0.96965158 410
5.0860338 -0.019450258 0.96265763 279
5.1901183 -0.046171021 0.97509044 263
5.1847167 0.079502173 0.97458512 295
5.0331492 -0.025817221 1.1490777 290.33334
5.1033621 -0.050461259 1.0826433 253
5.0508599 0.068919063 1.1324868 268
5.0017152 0.059941974 1.2957599 368
