# .PCD v0.7 - Point Cloud Data file format
VERSION 0.7
FIELDS x y z intensity
SIZE 4 4 4 4
TYPE F F F F
COUNT 1 1 1 1
WIDTH 1
HEIGHT 64
VIEWPOINT 0 0 0 1 0 0 0
POINTS 64
DATA ascii
3.5323186 -0.69948912 0.053676993 412.5
3.5340965 -0.55107194 0.044286996 417.20001
3.5650318 -0.34564504 0.057149708 385.33334
3.2500849 -0.21540484 0.10947275 172
3.4164798 -0.15012182 0.026176423 275
3.6133537 -0.29565242 0.14958537 318
3.2587748 -0.10845737 0.10808212 343
3.3338037 -0.14913364 0.10116321 325
3.2213411 0.039908864 0.08010599 420
3.3114042 0.021789478 0.10292894 325
3.5069084 -0.82292032 0.2061398 449.5
3.5387208 -0.694996 0.2002638 449
3.5251894 -0.5662536 0.18536322 1601
3.6093524 -0.54317021 0.23044011 441
3.588182 -0.42174262 0.1910976 444
3.2677178 -0.2204942 0.2082383 381
3.3308146 -0.15332624 0.20381553 482
3.3447974 -0.10555263 0.20274059 490
3.2653756 0.047027286 0.20735103 457
3.3195882 0.016469622 0.20393248 479
3.5487995 -0.82588631 0.36041567 455
3.5483758 -0.66699767 0.35415292 748
3.5299723 -0.58500504 0.35158485 2201
3.6432929 -0.4972513 0.34723467 372.75
3.4475782 -0.35181949 0.38469952 339
3.6463261 -0.40068278 0.35844058 394.66669
3.3455842 -0.19512396 0.34622085 411
3.4720895 -0.17721516 0.38185018 311
3.391381 -0.099078149 0.3446517 462
3.6638539 -0.087705702 0.38058472 289
3.3477104 0.031986095 0.34526595 475.5
3.5511503 -0.8338939 0.50941819 451
3.60447 -0.78492314 0.56350827 429
3.5583611 -0.64612377 0.51398736 1624.5
3.6036353 -0.69760209 0.51742977 456
3.5594251 -0.56683695 0.52398354 2395
3.6379843 -0.52558935 0.49753475 608.33337
3.5359573 -0.38647872 0.50394201 1666.5
3.6554947 -0.39477089 0.50784516 370
3.3815525 -0.20148811 0.45721412 427
3.5451429 -0.2146489 0.50064772 1364
3.6744926 -0.22734399 0.54654235 333
3.5806746 -0.090547606 0.50050664 304
3.6357458 -0.10036878 0.46145493 309
3.6672871 -0.78775465 0.69506156 352
3.5967963 -0.69538581 0.64165461 2211
3.6341846 -0.64397204 0.68977773 743.28577
3.5403197 -0.51338673 0.6291725 317
3.6564798 -0.52115202 0.69352162 1031
3.5517299 -0.33442351 0.62379116 321
3.675539 -0.40327176 0.68243778 399.85715
3.691268 -0.23637879 0.67344975 332
3.673285 -0.099786729 0.67005676 329
3.6954567 -0.62010664 0.81516176 341
3.5814419 -0.52345145 0.87876803 2781
3.6317568 -0.56371212 0.80483383 362.5
3.7566714 -0.45714474 0.81415063 424
3.6643484 -0.37919971 0.83381635 1615
3.6712265 -0.23196828 0.82504004 2737.6667
3.7715101 -0.26987973 0.85264546 302
3.7229543 -0.10788473 0.84327596 331
3.6974738 -0.54300195 0.97989255 393
3.6958492 -0.39555883 0.9992795 419.66669
3.6550274 -0.37898445 1.1266861 326
