# .PCD v0.7 - Point Cloud Data file format
VERSION 0.7
FIELDS x y z intensity
SIZE 4 4 4 4
TYPE F F F F
COUNT 1 1 1 1
WIDTH 1
HEIGHT 57
VIEWPOINT 0 0 0 1 0 0 0
POINTS 57
DATA ascii
4.3831792 0.67905605 0.09899807 328
3.9381475 -0.2034786 0.084801346 691.66669
3.941798 -0.053947486 0.084041998 425.33334
3.9223628 0.042154115 0.08545436 1246
3.41714 0.34085172 0.072067879 352.33334
3.5776436 0.42363882 0.080444604 347
3.965184 -0.20032218 0.25038746 960
3.9894457 -0.056875117 0.24866824 431
3.97123 0.050818376 0.24934822 502
3.5824931 0.28835872 0.22727755 341
3.6060197 0.28781852 0.1500375 303
3.5607216 0.37021729 0.18450522 391.39999
3.6122267 0.41661403 0.22771317 399
3.5888634 0.46789515 0.15373772 343
3.6158054 0.47352701 0.22860748 375
3.9857306 -0.22403139 0.38074812 522
3.9942777 -0.080707282 0.37966132 409
3.9895477 0.057054505 0.37952721 368
3.6413569 0.29727554 0.34301603 319
3.8593714 0.26295429 0.38165462 311
3.9616973 0.23213585 0.38091844 307
4.0850019 0.15092444 0.37974393 266
3.597554 0.33037621 0.30478829 437
3.6804585 0.38884023 0.34393606 344.5
3.8676608 0.43610328 0.38483202 321
3.6398807 0.48937416 0.34710631 389
4.0261197 -0.22484276 0.51658136 434
4.0145273 -0.088382907 0.50852698 377.57144
4.0570049 -0.026118079 0.56202126 375
3.9611354 0.14952083 0.46866304 545
4.1839066 0.065742373 0.5678969 277
3.8848836 0.20451179 0.52624166 329
3.928654 0.20734401 0.51332724 756
3.7182198 0.34949765 0.46675503 326.33334
3.8283665 0.37174171 0.51366007 897
3.9325054 0.40444344 0.56178761 313.66669
3.7041237 0.49119556 0.47014171 333
3.7861025 0.51104122 0.47230572 301
4.0689278 -0.22579093 0.65716207 422
4.0653286 -0.080957457 0.65542328 382.5
4.020525 0.10939053 0.74445951 347
4.023869 0.21108998 0.6932357 345.28574
4.0105948 0.36089039 0.69297034 311.39999
4.0573502 0.45286542 0.66178507 291
4.0936623 -0.22619313 0.75280976 320
4.1256618 -0.067105666 0.75411177 288.33334
3.9741659 0.10731798 0.83098125 1716
4.1483927 0.053382009 0.75611359 245
4.0075865 0.20616563 0.83630657 1755
4.0585699 0.25363216 0.8431955 311
3.996902 0.33878744 0.83807242 1820
4.110116 0.43610212 0.80683756 311
4.1462622 0.46561378 0.76400238 287
3.9955413 0.23085585 0.97997266 362
4.1028137 0.1726937 0.94053823 321
3.9630129 0.20801917 1.1209979 276.75
4.0614853 0.26551229 1.2089558 249
