# .PCD v0.7 - Point Cloud Data file format
VERSION 0.7
FIELDS x y z intensity
SIZE 4 4 4 4
TYPE F F F F
COUNT 1 1 1 1
WIDTH 1
HEIGHT 57
VIEWPOINT 0 0 0 1 0 0 0
POINTS 57
DATA ascii
1.2741978 2.0496876 0.0020853877 416
3.9402966 -0.19692719 0.084580883 709
3.95438 -0.062395502 0.090964429 412.60001
3.8983011 0.039051451 0.12741685 2007
3.9396052 0.01801163 0.043633595 433
3.5746865 0.29112145 0.079326898 297
3.6003091 0.29069754 0.0056034029 271
3.355715 0.32240245 0.10038841 385
3.5136242 0.35685676 0.05068326 324
3.6076953 0.3782149 0.0054180324 299
3.965867 -0.21871255 0.25075024 909.5
3.9754159 -0.07702063 0.2492806 431.25
4.0021377 0.07955765 0.2628825 334
3.5686636 0.29443571 0.19040737 348
3.5493581 0.36936134 0.18522637 381.39999
3.612268 0.42435914 0.22784963 421
3.6169767 0.47407705 0.19023167 352
3.9607081 0.55967951 0.29950869 577
3.9990265 -0.219248 0.38065371 429
3.9928617 -0.076750658 0.37964919 413
4.007618 0.052411191 0.37946248 332
3.9298759 0.2509369 0.381262 304
3.5854924 0.33044538 0.30511814 417
3.6651673 0.36944312 0.34981737 355.28574
3.6571879 0.4913466 0.36035487 387.66669
4.0247822 -0.21796048 0.50121081 393.66669
4.0543628 -0.22477747 0.56349313 377
4.0330195 -0.10772955 0.50646251 373.39999
4.0560212 -0.02603863 0.53137755 376.33334
3.9041393 0.14857671 0.46746039 2373
4.1618977 0.067310639 0.5669049 290
3.8832881 0.22348243 0.5118227 321.5
3.9416349 0.19151847 0.52825606 714.33337
3.6825786 0.32120669 0.46538749 342
3.7998137 0.39221966 0.49866399 892.33337
3.953095 0.40560085 0.56273615 310.33334
3.7027085 0.50779098 0.4706322 325
3.9454024 0.52711231 0.47581553 589
4.0558162 -0.21945852 0.65615219 382
4.0761104 -0.07741268 0.65616119 377.5
4.082799 0.067440428 0.70295775 282
4.0180387 0.20625795 0.69933099 352.25
4.016315 0.37150407 0.67964864 315.5
4.086628 0.45169571 0.66373825 303
4.1218319 -0.22219813 0.75538337 316
4.1200533 -0.063152194 0.75357294 307
4.0008326 0.1101955 0.8341974 1918
4.1109743 0.059293687 0.79967648 275
4.020504 0.22346835 0.83815116 874.33337
4.0021267 0.34658322 0.8079294 1370.3334
4.1134987 0.44505227 0.80818224 300
4.1557255 0.46201766 0.76475012 279
4.0969214 0.14851287 0.93934381 330
3.9879405 0.24265806 0.98506212 374.33334
4.0800462 0.20523827 0.96859252 330.33334
3.9922409 0.22214329 1.105131 333
4.070118 0.22464612 1.2096789 279
