# .PCD v0.7 - Point Cloud Data file format
VERSION 0.7
FIELDS x y z intensity
SIZE 4 4 4 4
TYPE F F F F
COUNT 1 1 1 1
WIDTH 1
HEIGHT 54
VIEWPOINT 0 0 0 1 0 0 0
POINTS 54
DATA ascii
3.5630558 0.38785964 0.081421927 413.66669
3.6154337 0.44674769 0.0051642954 275
3.5721967 0.46749952 0.046058878 393
3.9504035 -0.21331929 0.25098327 1199
3.9867673 -0.072048925 0.24885198 422.25
3.9663548 0.070982665 0.24951115 1233
3.5730948 0.29800081 0.15254363 260
3.5399163 0.37292171 0.18589795 393
3.6746037 0.37222397 0.22389902 328
3.8099756 0.32467353 0.29892296 329
3.5941248 0.47348875 0.15344515 417
3.6561661 0.50470412 0.2271941 331
3.9803195 -0.21364316 0.38065064 1302
3.9939723 -0.071661562 0.3796249 405
3.9805214 0.058663484 0.37955791 2009
4.0600443 0.084462218 0.3794235 239
3.9274731 0.25664657 0.38134602 312
4.0676103 0.18238021 0.38005984 328
3.5755048 0.33025026 0.34483832 387
3.6708913 0.39467311 0.35239694 340.60001
3.6284173 0.49683696 0.3475132 379
3.9957743 -0.21306899 0.51542115 1396
4.0207362 -0.078067437 0.50855094 377.57144
4.0509958 -0.028216599 0.56175196 375
4.0396199 0.06358473 0.46978265 685
4.0770302 0.074631914 0.53215492 309.66669
3.8729866 0.24281713 0.46791375 1931
3.9452167 0.20879953 0.52867776 729
4.0580134 0.17678547 0.47094762 188
3.697515 0.37861454 0.46700895 351
3.8338344 0.38258398 0.51364243 1375.5
3.9577997 0.39305276 0.5626201 312
3.6426625 0.50375319 0.46937597 397
4.0121961 -0.21341717 0.68352962 1327.6667
4.0656853 -0.073375717 0.68646973 377.66669
4.07054 0.069635816 0.68680382 301.33334
3.9927065 0.21711166 0.6910094 346.14288
4.0576463 0.16158149 0.74845523 317
3.9875655 0.38207453 0.68564522 318.66669
4.1379538 -0.075275041 0.80291754 265
4.1171679 0.073254079 0.81628299 288.33334
3.9971623 0.2087871 0.8351441 1008
4.0235758 0.37976584 0.84253162 821
4.0523381 0.44633722 0.75466198 281
4.1304464 0.46655899 0.81054097 293
3.9295764 0.14653631 0.91538358 2789
4.0280924 0.25548184 0.97686529 361
4.1628828 0.18075384 0.94925129 295
3.9569888 0.33041078 0.9234255 1971
4.0876961 0.38693857 0.99022162 315
3.9442616 0.24737206 1.1401064 360.5
4.0762467 0.18335776 1.1202502 301
3.9497693 0.31293777 1.1866503 321
4.0898509 0.18729366 1.2130468 281
