# .PCD v0.7 - Point Cloud Data file format
VERSION 0.7
FIELDS x y z intensity
SIZE 4 4 4 4
TYPE F F F F
COUNT 1 1 1 1
WIDTH 1
HEIGHT 54
VIEWPOINT 0 0 0 1 0 0 0
POINTS 54
DATA ascii
6.545433 -1.881122 0.11790678 289
4.6238203 -0.2604835 0.075828165 321
5.206615 -0.21135683 0.033242881 154
5.2194123 -0.069690995 0.14425272 465
4.658545 0.26620379 0.073337436 317
4.5897737 0.36088717 0.079160839 300.5
4.6255126 -0.28317097 0.17499715 331
4.6589012 -0.2528809 0.2412328 315
4.8266211 -0.18597996 0.21708038 266
4.9439821 -0.060194254 0.26653343 309
5.0713019 -0.014396803 0.26310718 535
4.84618 0.078786507 0.21583846 622
4.9728093 0.072015092 0.26579887 291
4.7040467 0.27481073 0.22278854 305
4.8538852 0.17995614 0.26943988 293
4.6702089 0.33716685 0.22470522 316
4.6770868 -0.24669226 0.37881297 311
5.0983443 -0.1874771 0.37699318 351
4.9055686 -0.073762894 0.37701854 302
5.0026579 -0.055305686 0.37663007 303
4.9372482 0.082513765 0.37689421 954
4.7971687 0.20887265 0.37807333 293
4.866797 0.29079694 0.37871301 275
5.0161462 0.19087446 0.37726432 2083
4.6399121 0.32510036 0.37990981 327
5.3043194 -0.18885651 0.49716097 293
5.0128269 -0.071043611 0.49040231 645
4.9887123 0.083053514 0.48988274 580
5.0820794 0.2155394 0.49274188 423
5.1207914 0.1996738 0.49340487 307
4.8248382 0.33210629 0.48887825 253
5.074079 -0.17084259 0.66790533 292
5.1677012 -0.15098856 0.73274112 233
4.9360952 -0.029554579 0.60194898 2073
5.0314674 -0.039563138 0.68375385 705
5.1917114 -0.14692739 0.6140666 291
5.0509501 0.083685614 0.66595 446
5.0324693 0.2005534 0.66551036 295
5.1349754 0.2103263 0.6713047 304
5.0751662 -0.15277684 0.84417987 301
5.2698917 -0.16819046 0.86267382 416
5.015739 -0.040354982 0.83790797 1935
5.1800609 -0.034463406 0.85340011 247
5.0194097 0.067348026 0.83834434 1533
5.222918 0.10206861 0.85771829 279
5.0666032 0.19574556 0.84383196 311
5.09832 -0.15811659 0.96493596 426
5.0730805 -0.028229887 0.96113145 289
5.1901093 -0.047090955 0.97509229 287
5.163105 0.063636594 0.97194189 277
5.0446677 -0.036631305 1.1321111 354.5
5.022378 0.053546757 1.128183 274
5.2973194 0.11367552 1.1107895 472
5.010725 0.045255948 1.2974188 241
