# .PCD v0.7 - Point Cloud Data file format
VERSION 0.7
FIELDS x y z intensity
SIZE 4 4 4 4
TYPE F F F F
COUNT 1 1 1 1
WIDTH 1
HEIGHT 60
VIEWPOINT 0 0 0 1 0 0 0
POINTS 60
DATA ascii
4.4255266 0.67312634 0.049658686 361.75
3.9333801 -0.20483612 0.077119067 1112.6
3.9592371 -0.075702637 0.096166953 420
3.9447761 0.028071851 0.070339575 995.66669
3.5638335 0.28950775 0.080341548 305
3.6369853 0.29322046 0.0013655722 257
3.3532052 0.32886904 0.034568846 349
3.5395646 0.38028416 0.06643936 343.5
3.6182673 0.47338483 0.077226967 325
3.981843 -0.21927512 0.24977641 526.5
3.9899468 -0.075539418 0.24870947 431.25
4.0232015 0.049744263 0.24719396 328.5
3.5801582 0.29481316 0.18978946 345
3.9040821 0.23646367 0.295237 303
4.0637236 0.15003814 0.29022902 320
3.5619953 0.37071186 0.17307885 397.5
3.6807401 0.41543671 0.22422394 357
3.6216574 0.47669592 0.19012453 371
4.0010567 -0.21888469 0.38064224 401
4.0004063 -0.075192817 0.37961924 398.5
3.9212017 0.25316614 0.38132 307
3.5892839 0.33272567 0.3050527 431
3.6663289 0.36689231 0.35754645 364
3.7820234 0.41008335 0.30116647 307
3.6613379 0.49295235 0.36037815 379.66669
3.7700729 0.52990711 0.30416125 327
4.0259728 -0.21875806 0.5166648 386
4.0226641 -0.081086747 0.50884122 376.71429
4.0509491 -0.033859774 0.56176102 373
4.1318789 0.069815844 0.56555331 361.5
3.8867474 0.24697185 0.51217377 303
3.946574 0.19106367 0.51368165 826
3.6443276 0.32742387 0.46474266 369
3.8419769 0.38148201 0.49193874 1057.5
3.9654803 0.40851867 0.56336302 305.66669
3.7057962 0.50741613 0.47067845 321
4.0742702 -0.21999401 0.65744144 383
4.0467019 -0.026637213 0.6538381 391
4.0777416 -0.07666155 0.67958665 373.5
4.0441813 0.067980625 0.6538009 285
4.1056776 0.070946097 0.704633 257.5
4.0155606 0.20796314 0.69912386 340
3.9943304 0.37086731 0.67796779 318.5
4.108077 0.45712438 0.66536796 305
4.107574 -0.22383007 0.78569049 331
4.1081209 -0.062716097 0.78405875 329.66669
4.2128396 -0.13511311 0.8595612 267
4.0067625 0.11186972 0.83491123 839
4.1139259 0.062181175 0.79985887 293
3.9877465 0.20577489 0.83394122 1434
4.0508561 0.26428291 0.84251732 349
4.0085526 0.35267806 0.83985204 2085
4.0896721 0.39875621 0.80407637 299
4.2591581 0.47730577 0.77482969 269
4.0269775 0.099422917 0.9288733 340.5
4.0145564 0.22553739 1.0196038 378
4.0675211 0.22864613 0.93659109 350.33334
4.1157904 0.39123261 0.94804353 378
3.9511745 0.2217063 1.1188822 361.5
4.0377684 0.22603837 1.2318292 287
