# .PCD v0.7 - Point Cloud Data file format
VERSION 0.7
FIELDS x y z intensity
SIZE 4 4 4 4
TYPE F F F F
COUNT 1 1 1 1
WIDTH 1
HEIGHT 60
VIEWPOINT 0 0 0 1 0 0 0
POINTS 60
DATA ascii
3.3619647 0.21825714 0.0660256 545.75
2.8926139 0.56981206 0.092273116 473.33334
2.9446659 0.66612512 0.1221961 425.39999
3.0057135 0.73287481 0.080860704 391
3.0191257 0.76332694 0.14072996 313
3.3868744 0.21824417 0.20085295 526
3.3563466 0.35737827 0.21163121 756.40002
2.9309366 0.57888931 0.2256566 511.66669
3.0000849 0.56578994 0.26272646 351
2.9605906 0.67054832 0.23679683 507.5
3.0145013 0.68419963 0.23365958 441
2.9888444 0.75495183 0.23773807 453
3.3891435 0.089809678 0.34992254 1025
3.4092386 0.22821712 0.34041148 523
3.3856406 0.30964568 0.34724092 617
2.9637754 0.59795159 0.32976624 541
3.0210185 0.56426132 0.32686585 329
3.2085311 0.55631226 0.39170855 332.33334
3.4030986 0.48907405 0.3634015 287.66669
2.9872303 0.62942111 0.36328083 502
3.0346727 0.68151599 0.36429471 447
3.1594551 0.72073269 0.39875835 315
3.0210271 0.77352285 0.36891016 440
3.4133515 0.091283731 0.48950639 1188.7144
3.4616022 0.14018132 0.53570175 473
3.4087944 0.24825525 0.4890708 501.80002
3.4615607 0.25682938 0.53750658 491
3.3586824 0.40946722 0.4988187 1310.5
3.508863 0.38303232 0.54256541 302
3.1005795 0.56848091 0.46205783 477
3.2618015 0.54594392 0.50615185 793.57147
3.37837 0.45951495 0.46300429 212
3.0736396 0.66159445 0.48013005 408.60001
3.2144189 0.69515026 0.54338598 347
3.0490901 0.77577972 0.47174379 382
3.2998652 0.76064503 0.5503729 493
3.4250717 0.077130675 0.63012338 1734.5
3.4742422 0.11774386 0.67334002 576.5
3.4338775 0.24368382 0.61357468 459.66669
3.4661832 0.26564184 0.67921525 672.60004
3.2711656 0.43255353 0.60794878 375
3.33637 0.44010329 0.6510058 311
3.5037792 0.38525394 0.6622566 301
3.2442806 0.50618434 0.60922104 377
3.3640728 0.52641976 0.67983562 421
3.2872734 0.67295265 0.62063384 329
3.3799617 0.64242095 0.67213166 354.60001
3.3638158 0.76744193 0.65754122 318.33334
3.4213588 0.051996686 0.76484632 2239
3.5122972 0.1107921 0.81594056 357
3.504271 0.24539092 0.80931896 400.39999
3.3960998 0.41605616 0.81670564 1113
3.5052736 0.35164303 0.8071928 333.66669
3.3699982 0.53282315 0.80625552 430.14288
3.3929725 0.66301155 0.82254738 1043.3334
3.40411 0.39152759 0.92397207 1453.5
3.475873 0.38780403 0.93553782 295
3.4096625 0.53326046 0.96555841 698.71429
3.5308201 0.4788709 1.0281091 287
3.3806112 0.51487035 1.1129587 388
