# .PCD v0.7 - Point Cloud Data file format
VERSION 0.7
FIELDS x y z intensity
SIZE 4 4 4 4
TYPE F F F F
COUNT 1 1 1 1
WIDTH 1
HEIGHT 57
VIEWPOINT 0 0 0 1 0 0 0
POINTS 57
DATA ascii
2.5154932 1.7448137 0.0098079443 255
3.8966665 -0.24589789 0.048495948 463
3.94133 -0.18550776 0.092459105 551.40002
3.9539375 -0.06327109 0.090882204 412.60001
3.9484706 0.022974994 0.069956899 555
3.6141937 0.29651764 0.075629354 436
3.5321398 0.36704105 0.04968904 352
3.9763994 -0.21810497 0.25008631 427.5
3.9743934 -0.077423327 0.24931443 439.75
4.0247784 0.04264769 0.24689406 272.5
3.5764499 0.29701793 0.18993588 337
3.5682695 0.3684116 0.17242369 359.5
3.6678815 0.40932095 0.22477213 365
3.6916847 0.48625523 0.22498736 303
3.9916134 -0.21751586 0.38065815 409
3.9895847 -0.077208944 0.37966371 416
3.8270626 0.25217089 0.38161385 362
3.9855022 0.20836625 0.38060096 350.5
3.5685196 0.32938391 0.30556315 399
3.6492953 0.36353749 0.35759649 366
3.8076179 0.4062911 0.30038875 257
3.6596811 0.49270988 0.36022338 348.33334
3.9179223 0.55511427 0.30060607 583
4.0130477 -0.21724221 0.5161112 391
4.0247245 -0.083775811 0.50876141 386.14288
4.0599637 -0.031111998 0.56216478 369
3.8921242 0.14876559 0.46721029 2895
4.1535487 0.058691725 0.5664916 321
3.8797977 0.21587947 0.52630466 312.33334
3.9609346 0.20604934 0.51433885 639.75
3.6850092 0.37357414 0.4666388 359
3.8274102 0.37714618 0.51333475 324.5
3.9664285 0.38794193 0.56285924 307
3.6648686 0.50397217 0.46979988 365
4.04249 -0.21666168 0.65518409 395
4.06145 -0.22005349 0.70312953 387
4.0446997 -0.13079187 0.700647 379
4.0729628 -0.060218569 0.65585053 381.66669
3.9944308 0.060167328 0.65029186 319
4.1369944 0.066607945 0.66027373 246
4.0002594 0.19773854 0.69122225 348.42859
3.9971354 0.37048033 0.67819518 320.5
4.1079402 0.44988388 0.66513103 283
4.0716844 -0.31610528 0.75262612 174
4.1431441 -0.22367045 0.80479819 313.5
4.1288161 -0.070868663 0.79259926 306.39999
3.9519351 0.14951673 0.82876956 3183
4.0932684 0.063360356 0.79767299 292
4.0026655 0.21291409 0.83586335 1046
4.0597563 0.25020504 0.79660761 302
4.0141435 0.34592915 0.79385328 947
4.1008272 0.41719708 0.82162684 314.33334
4.0055585 0.22426309 0.99525797 374
4.0860877 0.19662264 0.9386642 329
4.1421623 0.39128956 0.95177507 339.5
3.9064021 0.13362326 1.0869581 268
3.9754441 0.21898355 1.1234956 346.5
