# .PCD v0.7 - Point Cloud Data file format
VERSION 0.7
FIELDS x y z intensity
SIZE 4 4 4 4
TYPE F F F F
COUNT 1 1 1 1
WIDTH 1
HEIGHT 104
VIEWPOINT 0 0 0 1 0 0 0
POINTS 104
DATA ascii
4.7048807 -1.7963688 0.11118382 346
3.1345973 -0.65565437 0.065113202 1951
3.1858623 -0.48801821 0.087282166 504.33334
2.7935147 -0.30789918 0.073391199 536
3.2054789 -0.39324585 0.084042527 505.5
2.8257608 -0.15967949 0.095420897 529.66669
2.8762836 -0.2037816 0.076335751 453.5
3.1358855 -0.27729088 0.090167135 2102
3.1961555 -0.26241347 0.083575964 512
2.8344078 -0.050008945 0.093293726 515
2.8573124 -0.050439745 0.091681533 518
2.8268433 0.3960337 0.056711286 496
2.8569932 0.3763822 0.10435213 502.60001
3.1301231 0.32809708 0.0013196468 372
3.2197967 0.33121693 0.081385508 243
2.7905145 0.53509277 0.061031248 527
3.2157257 0.46626705 0.11555454 742
3.1681328 -0.6475575 0.22263724 2194
3.2129867 -0.49064827 0.21595669 487.66669
2.8257761 -0.30331546 0.17901167 547
2.8535836 -0.30013257 0.26417455 545
3.218111 -0.39168498 0.21361591 497.5
2.839761 -0.15329783 0.20455608 595
2.8849702 -0.1808641 0.24112587 549
3.2108927 -0.27171332 0.21226725 637.5
2.8753512 -0.057747286 0.23107602 585
2.8621192 0.36494589 0.23524769 548
3.2564313 0.32799137 0.17600957 278
2.8376997 0.51266026 0.21091068 551.66669
2.8503134 0.48847169 0.1509456 521
3.2382748 -0.65009946 0.35919785 1233
3.2381592 -0.49260533 0.35394746 501.33334
3.2445982 -0.39158592 0.35123289 495.5
2.8963745 -0.23985434 0.37275273 510.20001
3.0800018 -0.15065998 0.31640732 288
3.2534297 -0.27319157 0.34878471 508
2.8945765 -0.098017663 0.37089947 525.79999
3.0775204 -0.078843907 0.35573232 336.20001
3.0822573 0.083077602 0.3634344 357.28574
2.9393363 0.24501704 0.35298985 485
3.0783994 0.22481585 0.35694391 428.60001
2.8836539 0.36467519 0.35637903 553
3.0807643 0.34250051 0.35254177 386
3.2809846 0.32081723 0.31326926 174
2.8825965 0.47619554 0.35950285 504
3.2600472 -0.64157605 0.50522405 538
3.2497654 -0.49224967 0.49842033 502.66669
3.2545576 -0.35995778 0.49426335 499.33334
3.0840392 -0.15586598 0.45040494 309
3.2383389 -0.21992819 0.54492491 412
3.3299594 -0.17213275 0.5301488 997
3.2000453 -0.041329589 0.52379715 812
3.1119411 0.08780241 0.47357687 395.66669
3.2054825 0.086535923 0.53071594 807
3.0395837 0.28604484 0.4517206 401
3.1830161 0.23638146 0.52492094 656.71429
3.3101835 0.28230998 0.45708162 712
2.9002626 0.33347425 0.45014492 551
3.1030178 0.34767577 0.45447302 383
3.174196 0.39720917 0.49288514 564.5
2.8865247 0.46897912 0.45432395 423
3.2850051 -0.63331521 0.65606821 472
3.200937 -0.48946428 0.63462234 373.39999
3.2337279 -0.36948845 0.64518237 364.42859
3.2705722 -0.20217302 0.67520535 344
3.2546489 -0.024390416 0.71573901 1412.2001
3.3008888 -0.083947778 0.63919127 339
3.2511525 0.092389934 0.70109409 418.60001
3.307719 0.12860389 0.67747128 411
3.2622237 0.21802908 0.68684149 783.66669
3.2799082 0.37424329 0.68086517 395
3.3060403 0.37589777 0.60828668 443
3.297631 -0.62598801 0.77054304 397
3.2374945 -0.49633771 0.78081387 319
3.3473372 -0.51090443 0.80815566 300
3.5192237 -0.47959772 0.86779851 313
3.2842464 -0.31121987 0.75354517 303
3.3397384 -0.37676528 0.80014277 340.5
3.52068 -0.40499645 0.86450708 465
3.2911329 -0.20238262 0.75142872 357
3.3705807 -0.206985 0.83669311 353
3.2594404 -0.012610612 0.81835341 2547
3.3446064 -0.042868715 0.83071166 385
3.2362292 0.086181201 0.81551164 2712
3.3424754 0.076977894 0.79321814 428
3.2731769 0.26119781 0.79972214 1075.6667
3.3274088 0.20449898 0.80566919 419.66669
3.2826622 0.37613875 0.75571978 511
3.3102181 0.38112047 0.83388668 345
3.4339082 -0.19113831 0.92192668 305
3.2823229 -0.0032129404 0.96653229 301
3.3629158 -0.011512093 0.90789145 343
3.4665828 -0.074762799 0.92556715 329
3.2610044 0.022333099 1.0329945 312
3.3480687 0.07369405 0.93023533 333.66669
3.2595391 0.17777017 1.0348802 317
3.3344867 0.20409499 0.93511218 339.80002
3.2464552 0.022111682 1.1316023 328
3.4987772 0.1118282 1.1591125 255
3.2757761 0.17745684 1.1412401 293.5
3.2803319 0.034444712 1.2391759 277
3.3367665 0.020823209 1.2870345 338.5
3.4771528 0.10711776 1.2257941 305
3.2305851 0.17840871 1.2277529 317
