# .PCD v0.7 - Point Cloud Data file format
VERSION 0.7
FIELDS x y z intensity
SIZE 4 4 4 4
TYPE F F F F
COUNT 1 1 1 1
WIDTH 1
HEIGHT 70
VIEWPOINT 0 0 0 1 0 0 0
POINTS 70
DATA ascii
4.4230533 0.6770134 0.065311611 297
3.9525745 -0.19785254 0.083628669 506
3.9576173 -0.060881674 0.090808742 423.80002
3.9396553 0.044500466 0.08411184 1255.25
3.879214 0.18637562 0.049797833 302
3.9079416 0.18287815 0.12724656 178
3.4249074 0.3433927 0.048925936 337.66669
3.5653272 0.40483451 0.081395224 370
3.5837598 0.46850601 0.080450416 391
3.6407759 0.47454527 0.0025045276 319
3.9591367 -0.21833734 0.25079095 1475
3.9894228 -0.076173931 0.24868949 426
3.9693003 0.062701888 0.23502341 1510
4.0987482 0.083914265 0.28896141 245
3.5997977 0.29686445 0.22651553 216
3.9546268 0.19699764 0.26494357 236.66667
3.5568051 0.37279835 0.1846914 373.80002
3.6123476 0.42372409 0.22783414 379
3.8931911 0.3257294 0.29668248 275
3.6409061 0.4917638 0.20218115 365.66669
3.9820664 -0.2182038 0.38069424 1374
4.0048838 -0.075962126 0.37961084 402
4.0025406 0.057613265 0.37949175 639
4.0731721 0.078663841 0.37936193 287
3.8952928 0.2507984 0.38137606 389.5
4.0779271 0.17588238 0.37996989 238
3.5823212 0.3320277 0.30523086 429
3.6762977 0.38237852 0.35747647 333.66669
3.6621432 0.49777195 0.34696031 398
3.9888179 -0.21667743 0.50013959 1603
4.0614905 -0.22271657 0.56378454 787
4.0256491 -0.081627339 0.50882131 382.71429
4.0569296 -0.035326466 0.56203592 383
4.0299683 0.070876658 0.51530027 384
4.1085167 0.065338209 0.51834315 382.5
3.9362245 0.21055795 0.51993734 868.71429
4.121253 0.1726937 0.47222936 292
3.6780844 0.37262577 0.46647659 321
3.8580966 0.38129142 0.51415771 1128.5
3.9948821 0.39350694 0.56427538 307
3.6683309 0.50107884 0.46977323 401
4.003521 -0.22033206 0.69852829 2100
4.0693989 -0.21786311 0.65707046 455
4.0477004 -0.026470868 0.65390766 371
4.0708041 -0.086596154 0.69313669 371.80002
4.0452442 0.064326413 0.65385789 443
4.0882921 0.065706939 0.70361447 423.5
3.9947345 0.21382478 0.69136405 358.42859
4.0648999 0.15504046 0.74905753 315
3.9562812 0.36559606 0.67522746 323.5
4.0285435 0.45012864 0.65974045 295
4.0720119 0.54653752 0.66605228 315
4.1038465 -0.22272369 0.80066824 316
4.0392466 -0.1269035 0.83886302 106
4.1303935 -0.061934471 0.78622836 310
4.0185733 0.14824733 0.83665973 391
4.1222115 0.070464849 0.81659043 302.33334
4.0061741 0.22467211 0.83647746 1009.6667
4.0169096 0.37961015 0.77984405 849
4.0619178 0.38971174 0.84736681 306
4.160181 0.46906278 0.81379867 263
3.967427 0.1414358 0.92072785 2649
3.9917874 0.25145233 0.97082603 389
4.0917034 0.2274968 0.97055125 341
4.006145 0.33018973 0.97617328 1020
4.0690308 0.42964241 0.94275999 517
3.9729316 0.21442397 1.1360849 360.39999
4.0089822 0.31910717 1.1549844 368.5
4.0240183 0.24616387 1.2435687 288
4.0320005 0.31263378 1.2909853 259
