# .PCD v0.7 - Point Cloud Data file format
VERSION 0.7
FIELDS x y z intensity
SIZE 4 4 4 4
TYPE F F F F
COUNT 1 1 1 1
WIDTH 1
HEIGHT 80
VIEWPOINT 0 0 0 1 0 0 0
POINTS 80
DATA ascii
6.1160998 -1.5510426 0.12865794 282
4.9239392 -0.6731084 0.058985889 1871
4.9653521 -0.60484785 0.054829717 315
4.963048 -0.52138197 0.053817362 318
4.7577019 -0.35109773 0.066840112 417
4.9479165 -0.42271677 0.053716302 329
4.6424732 -0.25764346 0.074453592 320
4.6448627 0.27750403 0.074415028 325
4.607286 0.34273008 0.077703714 321
4.9362807 -0.66646701 0.16503364 1953
4.9882994 -0.62970793 0.23536682 747
4.9869947 -0.52060032 0.21515249 314.5
4.9486542 -0.37168908 0.21428797 1168
4.9667373 -0.41349113 0.21414921 479
4.6425943 -0.25652102 0.17391708 329
4.6714602 -0.25707847 0.27493101 315
4.842206 -0.17142794 0.26969534 293
4.9750185 -0.056602623 0.26570523 301
4.9578018 0.072672404 0.2661975 291
4.6703711 0.2848486 0.22405094 313
4.8387632 0.18286912 0.26986086 289
4.6356287 0.33843237 0.17505431 323
4.6628475 0.33398274 0.27601755 317
5.0031099 -0.63828391 0.38477904 860
5.0359173 -0.5223608 0.38194525 315
4.9652615 -0.39051831 0.37978125 1891
4.7473984 -0.26043332 0.37874526 287
5.0358634 -0.17245778 0.37707108 295
4.8752189 -0.12745552 0.37726748 285
4.9803295 -0.033247884 0.3766605 304
4.9008937 0.10038215 0.37706524 299
4.9883342 0.078162372 0.37673271 317
4.7751851 0.29734507 0.37909043 273
4.8019843 0.21294382 0.37809497 293
5.0179982 0.19456169 0.37728757 331
4.6618037 0.32736909 0.37986839 323
5.0369625 -0.63989675 0.50000417 417
5.0365067 -0.52004635 0.49686056 318
4.979763 -0.38988107 0.49302307 1862
4.8607383 -0.25729617 0.48857915 261
4.9645605 -0.28019765 0.49102217 428
5.2298622 -0.17302492 0.49547392 281
4.9207439 -0.044921037 0.48833501 2549
4.9839025 -0.020510171 0.48963261 305
5.1029248 -0.13859951 0.49256837 303
4.9172382 0.081878588 0.48837012 2027
4.97896 0.096275717 0.48973143 377
5.0766869 0.20148379 0.49249732 911
5.2117305 0.22552356 0.49555087 281
4.9384608 0.34106296 0.49135536 746
5.0666461 -0.63846993 0.65750945 321
5.1232057 -0.64942557 0.74059999 307
5.0744381 -0.52037609 0.67422074 300.5
5.0417519 -0.39312559 0.61063683 422
5.1290884 -0.39837706 0.73378885 286
5.037569 -0.21232477 0.66641313 389.5
5.2285519 -0.151943 0.73699188 279
5.3209152 -0.16968131 0.62009352 458
5.0026712 -0.032937873 0.66286922 1223.5
5.1927381 -0.1460388 0.61410648 293
5.0348692 0.090009071 0.66496646 852
5.0347953 0.2044268 0.66578937 291
5.1587582 0.21523705 0.67241907 304
5.1357937 -0.64520925 0.86171794 297
5.1115532 -0.52402353 0.85521811 295
5.1161799 -0.40501514 0.85230625 303
5.0741997 -0.15185754 0.84408027 317
5.2066321 -0.1532739 0.85657203 269
4.9908843 -0.0359926 0.83555222 2101
5.2209058 -0.030633327 0.85724705 285
5.0132399 0.079750136 0.83781874 1879
5.2189269 0.10244891 0.85734427 289
5.0863299 0.20056202 0.84574693 309
5.2104983 -0.16088079 0.97828424 420
5.0820394 -0.024300735 0.96218973 279
5.1603603 -0.042511839 0.971542 255
5.1738391 0.07662043 0.97327727 307
5.0333786 -0.032622021 1.1300604 283.5
5.0523596 0.066314518 1.1328437 275
5.04005 0.057833865 1.3030853 318
