# .PCD v0.7 - Point Cloud Data file format
VERSION 0.7
FIELDS x y z intensity
SIZE 4 4 4 4
TYPE F F F F
COUNT 1 1 1 1
WIDTH 1
HEIGHT 67
VIEWPOINT 0 0 0 1 0 0 0
POINTS 67
DATA ascii
4.1764741 1.5930851 0.1139421 305.33334
3.8691089 0.53844392 0.080981284 1142.3334
3.8632934 0.69702148 0.10592983 446.60001
3.9082639 0.60383946 0.13266036 413
3.834341 0.81015229 0.08938469 700.33337
3.21544 0.95879483 0.060880661 325
3.3997178 0.97820723 0.074715957 305
3.3915384 1.116257 0.079234958 348
3.9238005 0.5216018 0.25667459 454
3.8822455 0.70439243 0.22037095 435
3.9177446 0.60703671 0.21602368 429
3.8241546 0.82372057 0.22698957 2091
3.3687541 0.98790354 0.22130804 427
3.4881349 0.95570058 0.17380556 301
3.8906577 0.93508643 0.22721583 237
3.3999946 1.1264501 0.22506343 372.66669
3.4908357 1.090395 0.21739271 370
3.4372144 1.2301719 0.26578203 333
3.9681098 0.5307247 0.38675952 417
3.8876429 0.74256706 0.30699599 445
3.9193773 0.67115188 0.35392672 412.42859
3.8444357 0.84174526 0.36988017 1557.6667
3.4344802 0.99590081 0.33195549 449
3.4564819 0.99407136 0.40997803 435
3.8230729 0.95665562 0.36940131 636.40002
3.4157877 1.1095822 0.37820703 381.5
3.4905415 1.1645336 0.33902347 437
3.6196687 1.1318244 0.37431234 317
3.7834191 1.0576811 0.3665629 376
3.5124052 1.2585634 0.37170705 345.66669
3.998291 0.53769451 0.5232923 406
3.9423957 0.67864919 0.5266273 387.5
3.8613367 0.86570287 0.53324878 1417.3334
4.0852742 0.86836201 0.53975761 290
3.5091763 1.0015755 0.49123091 363
3.7066965 1.0118263 0.53778064 902
3.8198929 0.97258782 0.53895825 334
3.4667006 1.1132722 0.49841061 357
3.6458964 1.1190746 0.58707798 323
3.8037655 1.1261982 0.54805326 321
3.6829004 1.2250831 0.59665418 311
4.0279603 0.54446781 0.66301703 373
3.9726613 0.6792326 0.66526568 381
3.8827517 0.84294319 0.66844296 1814
3.9502642 0.83795899 0.67232144 283
3.8449619 0.95834082 0.67363638 405
3.8079479 1.099757 0.68197405 334.33334
3.7603374 1.2421117 0.69131702 297
3.9337475 1.2333364 0.65311372 305
4.0298805 0.54635894 0.7564401 327
3.9864326 0.6942746 0.79085511 362.33334
4.115026 0.69675285 0.77136832 280
3.8739052 0.88887203 0.76189327 2115
3.968075 0.82242405 0.81260341 434
3.850455 0.9886266 0.79773426 1107
3.9499359 0.93714708 0.86535043 335.66669
3.850368 1.1023003 0.82324314 628.33337
3.8447843 1.2556673 0.83733952 303
3.863307 1.0056833 0.9832505 616.33337
3.9509044 1.005211 1.0099738 287
3.8706827 1.1021044 0.99348438 375
3.7817864 1.2175478 0.96450347 1515
3.8685651 0.97209084 1.1305939 318.25
3.8317981 1.0637989 1.1340468 313
3.9043365 1.0641986 1.0556616 329
3.8155246 0.97671658 1.25123 341.5
3.8346713 1.0635734 1.2226317 264
