# .PCD v0.7 - Point Cloud Data file format
VERSION 0.7
FIELDS x y z intensity
SIZE 4 4 4 4
TYPE F F F F
COUNT 1 1 1 1
WIDTH 1
HEIGHT 51
VIEWPOINT 0 0 0 1 0 0 0
POINTS 51
DATA ascii
6.5209146 -1.8336061 0.11732459 272
4.6274338 -0.2582078 0.075551689 318
4.6698771 0.27700669 0.072594762 303
4.5853271 0.3598294 0.079477578 317.5
4.6315222 -0.25738823 0.17447948 332
4.7142253 -0.23164193 0.23848777 341.33334
4.8011851 -0.17160684 0.27078545 275
4.9630389 -0.055111516 0.26601899 295
5.1232829 -0.014805437 0.26173353 503
4.9138985 0.059478741 0.15941066 305
4.9570484 0.085260376 0.26626015 498
4.7004185 0.28470147 0.22289667 301
4.8229361 0.17832433 0.27025115 293
4.6577387 0.32975349 0.22505152 307
4.6763635 -0.24165767 0.37876195 311
5.0897613 -0.17622595 0.37693757 493
4.8959756 -0.077004649 0.37706363 302
4.9927182 -0.049852278 0.37664676 305
4.9049354 0.098487668 0.37704581 295
4.9514575 0.070045613 0.37681371 1029
4.7949319 0.2138935 0.37812501 297
4.8302054 0.29883 0.37893021 267
5.013166 0.1903173 0.37726903 1995
4.6732931 0.32113904 0.37974209 313
5.2327948 -0.17499004 0.49555027 279
4.9897857 -0.071272448 0.48992547 729.66669
4.9781713 0.084861621 0.48966932 398
5.0598617 0.21994236 0.49232048 455
5.1278019 0.19951145 0.49355036 301
4.7794452 0.32222372 0.48779029 251
5.0832024 -0.15871315 0.68776292 343.33334
5.1884971 -0.15394178 0.6139726 299
4.9211092 -0.029683918 0.60126859 2137
5.0245094 -0.036034033 0.68333328 792.33337
5.0471878 0.085458212 0.66559666 517
5.0514884 0.20427108 0.6863724 297.66669
5.1251254 0.21642289 0.6116783 311
5.151701 -0.15775159 0.8514384 359.5
5.0077729 -0.040503651 0.83715665 2037
5.2039895 -0.029161101 0.8556481 261
5.025218 0.077976525 0.83894014 1799
5.2210751 0.094714276 0.85750163 289
5.082294 0.20173004 0.84538156 297
5.1606059 -0.16714096 0.97242767 233
5.061193 -0.022873951 0.95970893 291
5.1901073 -0.047309507 0.97509265 287
5.169899 0.074538797 0.97279882 285
5.0476122 -0.034125719 1.1327565 306.75
5.0276709 0.064027213 1.1291056 282
5.1421075 0.10304543 1.0884819 275
5.0106111 0.05556538 1.297441 243
