# .PCD v0.7 - Point Cloud Data file format
VERSION 0.7
FIELDS x y z intensity
SIZE 4 4 4 4
TYPE F F F F
COUNT 1 1 1 1
WIDTH 1
HEIGHT 60
VIEWPOINT 0 0 0 1 0 0 0
POINTS 60
DATA ascii
4.8309302 -1.9414937 0.10761273 306
2.7774322 -0.3118287 0.050198488 529.5
2.9392042 -0.34595722 0.082847774 609
2.820097 -0.25765556 0.083312705 502.5
2.8725319 -0.24672632 0.11761111 532
2.8765335 0.2877813 0.09029974 523.66669
2.8131111 0.36244926 0.06609945 523.40002
2.8651669 0.41529629 0.092238188 407
2.8312078 -0.30395591 0.17841484 551
2.872436 -0.30231136 0.26325622 543
2.8495407 -0.2678293 0.20496723 537
2.8985491 -0.2330889 0.23682034 473
2.8748479 0.28453133 0.23315367 540.5
2.8336833 0.35000509 0.17897078 511
2.9047418 0.35748553 0.26261359 438
2.8465939 -0.27280709 0.38544491 573
2.9133096 -0.24227408 0.36637837 465.60001
3.0673845 -0.16060534 0.34953916 333.5
3.0953255 -0.064470336 0.35713384 399.75
3.1014814 0.079045996 0.36544961 389.75
2.9423947 0.25672287 0.37220085 491
3.041223 0.18910174 0.36138976 413
3.1631298 0.21390693 0.31485549 259
2.8892112 0.31690568 0.38674372 513.5
3.0820429 -0.1557554 0.45036215 317
3.2483673 -0.17314121 0.54441804 367
3.3219805 -0.17168389 0.52978331 967
3.1253448 -0.092773832 0.45067143 339
3.1916058 -0.038379449 0.52304924 1035
3.1107826 0.1260286 0.4737061 415.66669
3.2147911 0.064386725 0.53624117 856
3.0876932 0.23120359 0.45163405 318
3.2437882 0.20186226 0.52621627 346.33334
3.3343711 0.21303052 0.53096813 251
3.2675362 -0.17370002 0.67435807 391
3.3116667 -0.16933003 0.67842883 425
3.2535794 -0.06540975 0.68630332 850.40002
3.2604063 0.091383129 0.70013428 919.5
3.3224723 0.13464966 0.64147681 364
3.2636948 0.20298457 0.63769996 409
3.3139029 0.21238878 0.67943162 409
3.3206363 -0.17201716 0.79163778 424
3.2510018 -0.067672856 0.81748676 2273
3.3340778 -0.047761042 0.82924849 414
3.2442341 0.081325434 0.81662965 2454
3.3277259 0.10247903 0.828812 380
3.2930918 0.1970371 0.75151461 439
3.3545299 0.2114896 0.80962962 389.66669
3.4014225 -0.18917578 0.91646498 315
3.2567863 -0.0032009087 0.96164477 325
3.3559616 -0.052032098 0.94362497 335
3.2556953 0.017393012 1.0318254 319
3.3763616 0.068066813 0.94032615 308.60001
3.3370612 0.19121234 0.90578008 377
3.271246 -0.050981008 1.1490426 312.33334
3.3374879 -0.070711724 1.1202281 257
3.2380378 0.017154362 1.1294221 344.5
3.3386371 0.075567529 1.1200109 274.33334
3.2098811 -0.047174182 1.2193965 345
3.2184021 0.016766567 1.2216378 360
