# .PCD v0.7 - Point Cloud Data file format
VERSION 0.7
FIELDS x y z intensity
SIZE 4 4 4 4
TYPE F F F F
COUNT 1 1 1 1
WIDTH 1
HEIGHT 86
VIEWPOINT 0 0 0 1 0 0 0
POINTS 86
DATA ascii
4.618185 -1.723506 0.063038468 339
3.1848588 -0.61089504 0.089255154 1562
3.2110271 -0.52174175 0.085146189 502.5
3.1945076 -0.38394591 0.085072063 1180.6667
2.8405225 -0.25671965 0.058166932 526.33337
2.8814056 -0.22425787 0.10757347 515.66669
2.9428532 0.28372905 0.11063433 379
2.8327668 0.36074346 0.068975627 538
2.8813818 0.36597267 0.090535171 504.81821
3.0709343 0.30405429 0.0092547834 669
3.2356122 -0.6233089 0.21764022 1264
3.2478173 -0.52375293 0.21449465 484.5
3.2196367 -0.38168615 0.21333513 1095.6667
2.8959892 -0.23778158 0.2312164 553.33337
3.0520868 0.28639364 0.22216912 288
2.9003699 0.3591741 0.23281175 513.25
3.2130442 -0.61991847 0.35847181 2008
3.3681357 -0.67114061 0.39497072 617
3.2711759 -0.52313262 0.35425791 500.25
3.2540529 -0.38031635 0.35080931 749.33337
2.9290051 -0.23668745 0.36675093 503.00003
3.0591764 -0.16403288 0.33879107 319.66669
3.0955975 -0.067334652 0.36308137 381.28574
3.1943643 -0.054780804 0.31281346 284
3.1185138 0.076131038 0.33723354 686.33337
3.180263 0.10335069 0.35453072 366.20001
2.9801106 0.27026963 0.35264999 409
3.0682113 0.21969464 0.35711622 373.39999
3.1847143 0.22021571 0.31435353 301
2.9297218 0.36000249 0.3554557 471.25
3.2583547 -0.63400257 0.50473833 1794.5
3.2753057 -0.51899672 0.50010383 461
3.2718561 -0.38668379 0.48808709 475.80002
3.3759942 -0.33390048 0.49834001 380
3.0802207 -0.1524844 0.45028538 309
3.3375311 -0.17961612 0.5305934 313
3.1297255 -0.096541464 0.45078951 355
3.2116625 -0.04535272 0.5058111 779.75
3.1102467 0.10487571 0.45048198 354.33334
3.201721 0.087258071 0.53386736 1550.7144
3.0776787 0.22195683 0.45128244 365
3.1762843 0.23638505 0.48904288 332
3.3031371 0.21569256 0.52961332 323
2.9300134 0.32926446 0.45061049 559
3.0116706 0.36949432 0.45337579 275.5
3.2740207 -0.63106894 0.65512455 2240
3.2334971 -0.51194763 0.65102553 377.85715
3.3014197 -0.47876647 0.61182094 333
3.2513351 -0.37898394 0.63415521 389.39999
3.397665 -0.33829853 0.65160018 322
3.2896338 -0.17258774 0.60224992 371
3.3711948 -0.17461354 0.68410623 350
3.5069604 -0.18123084 0.61746866 307
3.2778287 -0.031981409 0.71827203 1192.6
3.3320653 -0.079659976 0.63422328 355.39999
3.2651906 0.085229337 0.68214899 1087.75
3.3233461 0.13578457 0.67903328 343
3.2643418 0.20840353 0.60110354 370
3.3310323 0.25254446 0.66331154 372.5
3.2636583 -0.63294935 0.76719171 1981
3.3602016 -0.6392051 0.82974714 358.66669
3.2606149 -0.51314235 0.75969458 360
3.3417606 -0.51183397 0.81461757 310.60001
3.2950208 -0.40383658 0.75829506 315
3.363235 -0.40261719 0.81727695 305.66669
3.3671484 -0.16629863 0.79757786 377
3.499717 -0.18625857 0.77574694 489
3.2753303 -0.065912127 0.82094693 2443
3.3445086 -0.063882992 0.80609918 402.33334
3.2802017 0.098992072 0.79735374 2067
3.36131 0.10596389 0.83364844 363
3.3380001 0.2109662 0.79474503 446
3.3943973 -0.075187482 0.91354835 347
3.5245483 -0.021740001 0.97472167 370
3.2995651 0.0365461 1.0413066 337
3.382947 0.070017159 0.97603071 323.5
3.4846523 6.6688874e-05 1.0052557 281
3.3790717 0.19866292 0.91295886 345
3.4795852 0.15124659 0.92874944 363
3.6230664 0.2434945 0.95474452 364
3.4197319 -0.044473913 1.1395695 273
3.3512986 0.050950687 1.1529115 288.42859
3.3714342 -0.048478514 1.231125 288
3.480197 -0.068746358 1.2260826 263
3.257534 0.020451102 1.2534232 361.66669
3.3708401 0.099026084 1.2428477 304
