# .PCD v0.7 - Point Cloud Data file format
VERSION 0.7
FIELDS x y z intensity
SIZE 4 4 4 4
TYPE F F F F
COUNT 1 1 1 1
WIDTH 1
HEIGHT 56
VIEWPOINT 0 0 0 1 0 0 0
POINTS 56
DATA ascii
4.4066916 0.67234135 0.050750382 386
3.932699 -0.20276885 0.077189505 800.20001
3.9457326 -0.087113589 0.09185566 414.20001
3.9486363 0.024029529 0.083425283 824
3.5333719 0.28774369 0.048192263 292
3.421741 0.34477898 0.049114358 344.33334
3.5635159 0.38256758 0.081299305 343
3.6907487 0.44978777 0.070006788 327
3.9755113 -0.21633956 0.25011441 601
3.9811332 -0.072749585 0.2490553 427.25
4.0136356 0.05423326 0.24728334 297.5
3.567044 0.29587954 0.19071101 352
4.042676 0.15100496 0.29079455 212
3.5418072 0.35251412 0.18035269 378.33334
3.6475472 0.42215842 0.20058087 381
3.6154943 0.47743982 0.19035247 353
3.9902167 -0.21579579 0.38064229 407
3.9982104 -0.072499588 0.37961519 413.5
3.8850875 0.26776063 0.3816359 402
3.935967 0.24265732 0.38113147 301
3.5970843 0.33509678 0.30487961 419
3.6598039 0.36835679 0.35767266 370
3.8122578 0.41835678 0.30049419 343
3.6636982 0.49525386 0.3605327 366.33334
4.0116491 -0.21547946 0.51612008 385.5
4.0212994 -0.07839527 0.50868863 375.28574
4.0629611 -0.031136598 0.56230086 383
4.1443124 0.072908446 0.566131 356.5
3.8788683 0.23020525 0.51188016 321.5
3.9326887 0.18193097 0.51311779 1443.5
3.6988983 0.35778993 0.46656054 347.66669
3.8879704 0.38918757 0.51530194 886
3.9568558 0.41072369 0.56304318 355.66669
3.792459 0.52275389 0.47279394 297
4.0624638 -0.21684259 0.65657341 377
4.0435934 -0.11920856 0.70045465 377
4.0685873 -0.072577901 0.67891598 343.25
4.0147071 0.070146531 0.65175414 298.5
4.0798903 0.071019992 0.74973714 295
4.0034757 0.20969258 0.69823831 351
3.9846187 0.3475953 0.68410653 334.33334
4.0968137 0.45885894 0.66465777 298
4.1016297 -0.2180288 0.75341702 313
4.0964079 -0.025892992 0.75112593 326
4.2060614 -0.12998393 0.85870111 265
3.9668245 0.14995688 0.83054173 2995
4.1251445 0.071563423 0.84860915 296
4.0139122 0.22807734 0.83746213 932.33337
3.9808161 0.34540212 0.83637726 2011
4.0500345 0.35656682 0.75165993 291
4.1579566 0.45418942 0.81323463 299
3.9946637 0.25241691 1.0168688 396
4.0749068 0.20482159 0.95553553 338.80002
4.1492248 0.34763807 0.95123786 297
3.9583282 0.22519413 1.1203653 338
3.9521332 0.21995302 1.269079 308
