# .PCD v0.7 - Point Cloud Data file format
VERSION 0.7
FIELDS x y z intensity
SIZE 4 4 4 4
TYPE F F F F
COUNT 1 1 1 1
WIDTH 1
HEIGHT 90
VIEWPOINT 0 0 0 1 0 0 0
POINTS 90
DATA ascii
4.7354612 -1.5597767 0.098667502 320
3.2701111 -0.49409223 0.078219995 892.5
3.2574461 -0.37365043 0.078239031 492.25
2.8822944 -0.17859933 0.089122884 491.66669
3.2339754 -0.25405338 0.079627603 913
2.8951833 -0.12293553 0.087238193 517
2.9294958 0.43372536 0.085628077 493.33334
3.3955147 0.36183909 0.097032279 208
3.4945316 0.37104768 0.018506587 372
2.8860071 0.51987141 0.076015614 493.00003
3.2671158 -0.48937991 0.21238324 1501.5
3.2764792 -0.36673495 0.19810109 489.33334
3.3160744 -0.39581585 0.24242434 478
2.9363348 -0.17272353 0.22803013 436
3.2729688 -0.25514793 0.20831686 521
2.9469333 -0.11337178 0.23329723 524.20001
3.0428555 -0.070707098 0.18941534 307
2.9482465 0.4321242 0.23121081 496.5
3.2601995 0.34819031 0.17600727 246
2.8481905 0.47799787 0.15096003 583
2.89539 0.49608046 0.23610584 512
3.2853134 -0.48795071 0.35292953 1992.5
3.3128664 -0.37374419 0.34967873 486.75
2.9474161 -0.1657612 0.35189688 437
3.305985 -0.25560668 0.34755656 496.5
2.9647226 -0.10764503 0.35096332 507.33334
3.0676332 -0.032983847 0.39567485 322.60001
3.1619833 -0.0062371627 0.31356722 276
3.1200013 0.099227197 0.34865201 764
3.2170022 0.094145276 0.35403982 367.80002
3.1948681 0.23625664 0.36042953 410
2.9684455 0.41886446 0.34985292 475.80002
3.0547864 0.35466263 0.36964294 388
3.2150905 0.36868259 0.31600434 297
2.9406369 0.49999315 0.35915527 387.25
3.3107257 -0.48745897 0.50013196 2168
3.3294549 -0.37234759 0.49699962 446.5
3.2491748 -0.2232742 0.47931752 1530.3334
3.330611 -0.25237733 0.4944171 507
3.1135523 -0.10132914 0.45048583 289
3.2139664 -0.050036825 0.52430665 293
3.2409294 0.10862835 0.49479407 913.28577
3.3173528 0.05523064 0.52852678 519
3.234309 0.23288003 0.49992001 1149.25
3.3077888 0.29135147 0.53134429 361
3.0794389 0.38229162 0.4689889 328.60001
3.1747155 0.38423187 0.52810574 354
3.3376019 0.36816117 0.53465223 2247
2.9286206 0.46638441 0.45497543 539
3.0143173 0.46364617 0.45641685 315
3.3375149 -0.48698953 0.65266544 1431.5
3.2649276 -0.36164713 0.64211261 383.66669
3.3363981 -0.36655691 0.64834094 323
3.2719307 -0.25189567 0.63926232 391
3.3487048 -0.22633713 0.65791339 363.33334
3.4997387 -0.18518959 0.61702722 154
3.3396173 -0.036804747 0.64985293 331.80002
3.2967043 0.097621903 0.67616266 426
3.3338604 0.084251419 0.63432515 456.60001
3.2858653 0.24346247 0.64054203 714.5
3.3208778 0.26079053 0.65636647 385
3.2486932 0.41200516 0.62428546 355
3.3470817 0.36459851 0.66125649 457.66669
3.3972154 -0.49153677 0.81308317 818
3.2574382 -0.40021703 0.75377882 441
3.3635528 -0.36417508 0.79512429 308.60001
3.48048 -0.37307519 0.85761398 314
3.3583431 -0.252689 0.79874671 720
3.3631923 -0.020643074 0.79579514 380.5
3.3412509 0.093355633 0.79325712 1298
3.2832818 0.19786143 0.7871958 1581
3.3265138 0.25355229 0.78700083 1844.6
3.3818147 0.36722785 0.80550498 374.33334
3.4319587 -0.34808767 0.926588 299
3.4899747 -0.034937151 0.92922783 293
3.4282432 0.10314575 0.91957825 334.33334
3.4666221 0.073117435 0.92555952 343
3.3949599 0.2053577 0.97780669 320.66669
3.478548 0.25214744 0.96939278 310
3.3971274 0.34890401 0.92086864 341
3.6534066 0.32667807 0.96240759 421
3.3888156 0.080448546 1.1325414 420
3.4657526 0.10982281 1.1512322 251
3.2952337 0.22294009 1.181507 319
3.3494394 0.18133697 1.1245427 298.14288
3.4812906 0.26831937 1.1591469 289
3.4054418 0.093909711 1.2069497 282
3.5323398 0.090390913 1.3107877 463
3.2602749 0.16310801 1.2564059 349
3.3821726 0.24597368 1.2500168 275
