# .PCD v0.7 - Point Cloud Data file format
VERSION 0.7
FIELDS x y z intensity
SIZE 4 4 4 4
TYPE F F F F
COUNT 1 1 1 1
WIDTH 1
HEIGHT 88
VIEWPOINT 0 0 0 1 0 0 0
POINTS 88
DATA ascii
4.8428721 -1.9465772 0.10687333 304
3.139508 -0.65796465 0.064549446 2115.6667
3.168402 -0.60947967 0.091100499 503
3.1480105 -0.58757645 0.0011829436 499
3.1763916 -0.51916015 0.088767126 512.25
2.7934716 -0.31225118 0.069432579 527
2.9481242 -0.34669542 0.08181721 525
3.0979199 -0.36791015 0.12541276 2145
3.1735551 -0.42718148 0.087738574 526
2.8252556 -0.2554906 0.096283399 511.80002
2.8789299 -0.24887191 0.089015663 489
2.8778045 0.28484631 0.079135366 520.60004
2.8180325 0.36166921 0.065501496 522.60004
2.8709877 0.35989866 0.12825115 503.66669
3.1878579 -0.63414866 0.22102791 1281
3.2006686 -0.51887584 0.21732618 494.5
2.8326173 -0.30323765 0.20667493 545
2.8534422 -0.3013598 0.26420203 543
3.1344101 -0.37442732 0.18561283 2257
3.1922994 -0.407675 0.22658345 1092.3334
2.847429 -0.23785335 0.20476922 563
2.9002836 -0.24021712 0.23704492 461
2.9053087 0.2696158 0.23104528 462
2.840836 0.3510288 0.17834094 508
2.8759098 0.32916471 0.23974423 506.60001
3.2304766 -0.63759303 0.35893956 677
3.2334065 -0.52004564 0.35493642 507.75
3.1973004 -0.39833784 0.35201776 1418.5
2.8487396 -0.27315801 0.32425612 569
2.9008076 -0.25106877 0.37831166 482.55557
3.043992 -0.16252576 0.35023594 345.75
3.1135097 -0.053567238 0.3533805 378.14288
3.1036928 0.080010816 0.37256053 346.14288
3.1502264 0.066669367 0.31400576 411
2.9272172 0.25372425 0.37233743 498.20001
3.0339403 0.18808565 0.36145592 403
3.1750526 0.21534103 0.31455266 253
2.8801153 0.31719777 0.37437463 577
3.246645 -0.63499045 0.50443995 515.5
3.2418735 -0.51658469 0.49906498 487.25
3.1984954 -0.39465362 0.49346015 2210.5
3.0939479 -0.15774222 0.45063365 309
3.2529924 -0.1752231 0.54471684 357.5
3.3348651 -0.17384268 0.53039294 1005
3.1391859 -0.068120994 0.47413155 349.66669
3.1925502 -0.042828266 0.52326655 1155.8572
3.1151714 0.12480228 0.47383493 413.66669
3.2216222 0.064275943 0.53665453 882
3.0453289 0.19752769 0.45017278 381
3.2219632 0.20084329 0.56194985 366
3.3462605 0.23525727 0.48162624 418
2.938844 0.31458914 0.45040226 344
3.2802391 -0.63769042 0.6434449 481.66669
3.3002381 -0.63463604 0.69531238 479
3.1925211 -0.50288254 0.64216393 378.75
3.2569618 -0.39862615 0.64274645 429.5
3.2696252 -0.17206284 0.67452693 398
3.2532799 -0.062969223 0.69602996 915
3.3149922 -0.097558752 0.60311967 323
3.2593596 0.085590191 0.70389384 1020.7144
3.3063524 0.13035902 0.65249795 382.33334
3.2701745 0.20313847 0.63827324 412
3.3030581 0.21050584 0.67837733 415
3.2943089 -0.6414628 0.77118886 479
3.3473792 -0.6405077 0.82863438 392.66669
3.2494156 -0.50258714 0.77272034 327.80002
3.3351274 -0.52088904 0.8445878 296
3.3353546 -0.40908915 0.78867233 339
3.4739788 -0.41108996 0.85820925 315
3.3321753 -0.17432174 0.7931602 424
3.2534757 -0.068405874 0.81784153 2137
3.3355451 -0.048962768 0.82946467 404
3.2457504 0.08024779 0.81683636 2522
3.3480499 0.10233353 0.83171356 372
3.2989998 0.19798148 0.75223273 449
3.362155 0.21147808 0.81060189 387.66669
3.3698328 -0.18868376 0.91118616 319
3.242152 -0.0029090501 0.99350059 325
3.3729982 -0.053678766 0.94669813 334.66669
3.2595146 0.033518106 1.0326837 325
3.3559113 0.067015931 0.93664515 313.39999
3.3340724 0.19158614 0.90529048 353
3.2544219 -0.056596141 1.1672175 308
3.3216784 -0.058183018 1.1163616 283
3.2424104 0.015972529 1.1305085 341
3.3474407 0.076324582 1.1218162 269.66669
3.2185102 -0.0491491 1.2218461 347
3.2164836 0.015629312 1.2210937 360
