# .PCD v0.7 - Point Cloud Data file format
VERSION 0.7
FIELDS x y z intensity
SIZE 4 4 4 4
TYPE F F F F
COUNT 1 1 1 1
WIDTH 1
HEIGHT 76
VIEWPOINT 0 0 0 1 0 0 0
POINTS 76
DATA ascii
6.0907936 -1.5490586 0.12996358 322
4.9296303 -0.66851252 0.058488131 1903
4.9644279 -0.61208099 0.055009425 309
4.9403052 -0.48149911 0.054952562 323
4.9727769 -0.56058025 0.053629875 315
4.6626248 -0.33859912 0.073639512 381
4.9780293 -0.43308738 0.051635146 315
4.6414924 -0.28339338 0.074705184 315
4.6603942 -0.23323737 0.072977901 325
5.1386027 0.062377535 0.14825314 618
4.6455417 0.2825782 0.074404716 327
4.6227326 0.33702487 0.076526463 321
4.9930172 -0.64233673 0.21723804 661.5
5.008049 -0.52322286 0.21434142 313
4.798811 -0.35279563 0.16703886 451
4.9743214 -0.40455183 0.23208371 369.66669
4.6381092 -0.25646067 0.17413855 324
4.673954 -0.25741586 0.27486598 316
4.8194199 -0.16540237 0.27026308 287
4.8235989 -0.12874326 0.26995438 408
4.9996576 -0.033440929 0.26502919 307
4.8460851 0.1100604 0.26927704 328
4.9509158 0.065036438 0.26636082 287
4.676527 0.29028159 0.22387543 317
4.8539243 0.202434 0.26960018 278
5.0164547 0.18811284 0.1547966 172
4.6632061 0.33034843 0.22487715 315
5.0218248 -0.64184326 0.38478056 395
5.0174856 -0.52061713 0.3819845 320
4.9820986 -0.39292884 0.37976459 1177
4.7040801 -0.24755855 0.37873763 309
4.829638 -0.27603939 0.37865752 265
5.0800276 -0.16861391 0.3769142 329
4.9209814 -0.073995061 0.37699139 294
5.0066681 -0.054470394 0.37661666 307
4.9277706 0.10623051 0.37701261 297
5.0064507 0.070878468 0.37665892 307
4.825099 0.21102096 0.37800741 289
5.080833 0.19985914 0.3771407 501
4.7120914 0.31105852 0.37947899 287
5.0393248 -0.64119387 0.50008351 322
5.0275211 -0.51935935 0.49666792 318
5.0314708 -0.39523524 0.49417627 583
4.9101486 -0.26877207 0.48974818 259
5.2020769 -0.16650198 0.49484181 291
4.9337091 -0.048106376 0.48861581 2173
5.0088267 -0.08115489 0.49038994 406
4.9815941 0.088534564 0.48975801 854
5.1572165 0.21365747 0.49429682 307
5.0784526 -0.64308017 0.65831316 305
5.1338239 -0.64533305 0.74117196 295
5.0647235 -0.51958996 0.67376137 291
5.0576458 -0.38955176 0.67035758 306
5.1135263 -0.40432954 0.67355847 291
4.9353905 -0.26855573 0.60376287 382
5.2037096 -0.15780072 0.6549843 275
5.0255151 -0.056435812 0.67583704 731.40002
5.0518732 0.089360043 0.66558951 752.5
5.024826 0.20377806 0.66529554 297
5.1243191 0.21348026 0.67116129 303
5.1515889 -0.65464151 0.86353469 255
5.1059098 -0.52070117 0.8545903 275
5.1761627 -0.40455189 0.85789526 281
5.0988259 -0.16022789 0.84648019 305
5.0685568 -0.033924699 0.84287715 541
5.2053804 -0.090771705 0.85609645 267
5.08183 0.086239576 0.84432185 351
5.2330108 0.095396146 0.85863113 297
5.1103344 0.19842604 0.84798026 299
5.0800366 -0.027386291 0.96195692 285
5.2010956 -0.040145624 0.97637868 249
5.2372928 0.083093494 0.98085326 275
5.053134 -0.032857381 1.1332219 277.5
5.0410638 0.068570524 1.1890576 281
5.1060014 0.075176477 1.083133 249
5.2855992 0.1065239 1.1090565 386
