# .PCD v0.7 - Point Cloud Data file format
VERSION 0.7
FIELDS x y z intensity
SIZE 4 4 4 4
TYPE F F F F
COUNT 1 1 1 1
WIDTH 1
HEIGHT 105
VIEWPOINT 0 0 0 1 0 0 0
POINTS 105
DATA ascii
4.7952404 -1.5546275 0.093740165 406
3.2558086 -0.47049415 0.07962022 1352.5
3.275034 -0.36227709 0.076283962 490
2.9534335 -0.18297315 0.094899327 468.5
3.2639744 -0.26270178 0.076488249 526
2.9172845 -0.12332556 0.066195458 494
3.0664463 -0.064127497 0.10634975 303.66669
2.9471097 0.42192167 0.083597809 454.66669
3.4868979 0.37251225 0.053614438 305
2.8888583 0.5011186 0.083394125 526.14288
3.0327904 0.58226001 0.074971795 281
3.2733674 -0.50539505 0.21230707 1610
3.309432 -0.45280787 0.20899153 480
3.2797155 -0.35583454 0.17470831 497
3.3080316 -0.36855286 0.22496548 481.5
2.9337993 -0.15698697 0.22809707 539
3.0238867 -0.18734786 0.22261496 441
3.2841015 -0.25978357 0.19620357 506.33334
3.3072224 -0.27176666 0.24089274 489
2.9727888 -0.094756424 0.22534066 506
3.0860512 -0.057598539 0.18625125 295
2.9565959 0.43862301 0.23066776 523
3.0493913 0.41326207 0.22444665 321
3.3413112 0.35880661 0.17021888 188
3.4663024 0.39741009 0.16162041 314
2.928803 0.49401522 0.23381713 552.5
3.2944398 -0.49737233 0.35306031 2262
3.3089757 -0.51358014 0.35334915 2149
3.3306682 -0.38668868 0.34965724 484.5
2.9744332 -0.1701391 0.35141543 405
3.0340569 -0.17129362 0.44956279 315
3.3234079 -0.26329881 0.34739894 484.5
2.9883122 -0.094582915 0.35055673 501.5
3.0525746 -0.048938889 0.3822906 372
3.2499166 -0.016011255 0.31124923 253
3.213021 0.080592722 0.35857114 356
3.3991127 0.13258432 0.30776805 515
3.1298671 0.27432868 0.38439679 431
3.2210846 0.21652405 0.34828097 404
2.9694948 0.42179048 0.3672092 499
3.0729208 0.36706275 0.35322031 387.33334
3.2096596 0.35545889 0.31588474 398
2.9569275 0.49474621 0.35892093 475.5
3.3211975 -0.50391692 0.50103009 2214
3.2957606 -0.42583182 0.53464079 339
3.3448858 -0.37799197 0.4921577 459.85718
3.2972884 -0.25218478 0.53003162 2075
3.3407111 -0.26449835 0.48229989 557
3.5214865 -0.20448993 0.49979854 354
3.1148052 -0.059530191 0.45031404 316.33334
3.1950917 -0.064931408 0.55878699 334
3.2476904 0.096369825 0.49482742 971.00006
3.3354301 0.049515776 0.52932483 804
3.2470732 0.22751153 0.48597556 1056.4286
3.3206289 0.2829614 0.53172302 623
3.0885897 0.38593096 0.50191969 372.66669
3.276911 0.35872132 0.45816267 297
3.3507833 0.36306554 0.53508449 1251
2.9757061 0.47568944 0.45616525 447
3.0365872 0.46827984 0.49114767 368.5
3.3344214 -0.50116801 0.65311682 1836.5
3.2841032 -0.38291377 0.65174663 349
3.3337245 -0.3639636 0.63507658 348.33334
3.2876711 -0.26617193 0.64107776 388
3.3569305 -0.23311889 0.65883768 341.66669
3.5253773 -0.20713122 0.61916059 357
3.2881069 -0.034895346 0.69949317 343.66669
3.3744559 -0.064825311 0.64483833 275
3.3435063 0.086967528 0.6423372 405.66669
3.4685581 0.037967622 0.69191563 341
3.299119 0.2714656 0.6794306 399
3.320461 0.23206259 0.63779575 523.85718
3.2171733 0.3924838 0.65175956 384.33334
3.365675 0.35792398 0.63749111 550.33337
3.3893802 -0.51090789 0.80011839 859
3.5158336 -0.50766391 0.86879182 261
3.2978966 -0.40478715 0.75866926 323
3.4092281 -0.37399226 0.80907393 306
3.5247395 -0.43456283 0.86639202 483
3.3914242 -0.26154754 0.80299199 636.5
3.4914858 -0.21144429 0.8149544 305
3.376348 -0.034617528 0.80995107 351.66669
3.2988033 0.10458992 0.75071537 409
3.3696046 0.08078865 0.80231071 1298.7144
3.2973251 0.26195237 0.82770216 2781
3.3367646 0.23217013 0.78996646 1352.7144
3.257009 0.40333214 0.75386226 355
3.3835092 0.37166396 0.81334543 358.60001
3.4612217 -0.36115214 0.93196237 438
3.4147241 -0.28487831 0.92137349 406
3.5233769 -0.045372613 0.93486816 271
3.3610322 0.10143134 0.96298683 360
3.4545934 0.10423645 0.94933701 350.33334
3.4018781 0.21583025 0.96641159 325.33334
3.5238762 0.28291178 0.97857261 311
3.3985631 0.3362253 0.92058951 351
3.3619878 0.12412968 1.1496542 284.33334
3.519872 0.091994092 1.163844 261
3.2903588 0.21039835 1.1798143 323
3.3500726 0.20945466 1.1373894 293
3.2690902 0.14585719 1.2376928 351
3.3902521 0.084454231 1.2028615 261
3.4651582 0.082789421 1.2917483 320
3.2580855 0.17030518 1.2352465 319
3.3563259 0.20983073 1.2853475 331.33334
