# .PCD v0.7 - Point Cloud Data file format
VERSION 0.7
FIELDS x y z intensity
SIZE 4 4 4 4
TYPE F F F F
COUNT 1 1 1 1
WIDTH 1
HEIGHT 71
VIEWPOINT 0 0 0 1 0 0 0
POINTS 71
DATA ascii
6.0660148 -1.5253997 0.13044399 394
4.907609 -0.6603623 0.059969902 1881
4.9774599 -0.61241007 0.054058194 307
4.9589338 -0.5132249 0.054008484 321
4.660984 -0.33383659 0.073715091 387
4.9562998 -0.42973569 0.053181946 327
4.6812124 -0.25256848 0.071608245 306
4.6602015 0.28775579 0.07338047 311
4.5848618 0.33515844 0.079263747 331
4.9946852 -0.63936508 0.21708284 591
5.0044675 -0.51482284 0.21427637 317
4.8747559 -0.35574478 0.21775368 390
4.9885874 -0.42168644 0.21348098 392
4.6261148 -0.27365184 0.17488003 339
4.6785021 -0.24226454 0.24037135 311
4.8455634 -0.1615857 0.26954645 293
4.9711266 -0.046770968 0.2657901 283
4.9598932 0.066492371 0.26612681 285
4.7044368 0.27160513 0.24020885 300
4.8525376 0.18863076 0.26953399 291
4.6466808 0.33018085 0.22537759 315
5.0272069 -0.63937807 0.38469204 362
5.0248241 -0.51344454 0.38180295 318
4.9873323 -0.39023212 0.37970498 1161
4.7458034 -0.25319684 0.37867218 292
4.981257 -0.16026582 0.3771506 281
4.8770461 -0.13358441 0.37729532 295
4.9653854 -0.025554493 0.37669227 309
4.8986721 0.11012869 0.37711406 295
4.9804339 0.071820118 0.37673599 301
4.7995362 0.22223359 0.37818778 293
4.95683 0.19736016 0.37749344 285
4.7069221 0.31334671 0.37952608 300
5.0432205 -0.63850784 0.50008047 323
5.0373392 -0.51244003 0.49669871 317
5.0013385 -0.38956863 0.4934617 1099
4.8283172 -0.24605186 0.48777092 249
4.9578876 -0.27450868 0.49081111 301
5.1792641 -0.16066492 0.49432045 303
4.934823 -0.035437498 0.4886148 2585
5.0343342 -0.079938613 0.49092615 311
4.920341 0.075829461 0.48841333 2053
5.0067325 0.10682468 0.49036604 387
4.8557386 0.21875332 0.48804289 416
5.0934372 0.20762055 0.49290442 413
4.9089899 0.33279139 0.4906199 768
5.0668192 -0.63841653 0.67733085 311
5.1191206 -0.64264381 0.68046212 312
5.0608873 -0.51174206 0.65359801 295
5.1084461 -0.51486951 0.73529738 297
5.0543504 -0.3921881 0.61118245 313
5.1307459 -0.3964985 0.73386204 302
4.9331136 -0.25577077 0.60348672 287
5.2087893 -0.15534887 0.65513057 275
5.0096097 -0.049139846 0.67502862 1140.2001
5.0607905 0.092430517 0.66624641 813.5
5.0040245 0.21353468 0.64482111 297.66669
5.102284 0.21682103 0.72885072 295
5.1724925 -0.65606189 0.86550838 289
5.1408463 -0.52173209 0.85786086 291
5.1478043 -0.39722347 0.85507077 295
5.1058364 -0.15911874 0.84712982 313
5.0287533 -0.031005291 0.83911526 1495
5.2005167 -0.08155001 0.85560459 281
5.04989 0.090307966 0.84133124 1085
5.2240348 0.096144453 0.85778886 293
5.1107697 0.21143639 0.84818327 307
5.1545076 -0.026042458 0.97081321 263
5.2173514 0.087544911 0.97850758 285
5.0411067 -0.025227875 1.1310358 296.5
5.0400071 0.073133685 1.1889063 279
