# .PCD v0.7 - Point Cloud Data file format
VERSION 0.7
FIELDS x y z intensity
SIZE 4 4 4 4
TYPE F F F F
COUNT 1 1 1 1
WIDTH 1
HEIGHT 80
VIEWPOINT 0 0 0 1 0 0 0
POINTS 80
DATA ascii
6.5290117 -1.9082029 0.11994249 210
4.9288368 -0.64061606 0.058094621 1105
4.9457569 -0.48702121 0.054622889 315
4.9757481 -0.56093442 0.053417325 309
4.7516217 -0.35209662 0.067291796 427
4.9573312 -0.42940459 0.053103149 319
4.6408367 -0.26004905 0.074589133 312
4.6190839 0.2742255 0.076262176 329
4.576498 0.3578338 0.080098569 273.5
4.9375792 -0.66424096 0.219675 1777
4.9877777 -0.61764705 0.21705714 313
4.9976172 -0.52451831 0.21475923 311.5
4.9327083 -0.37010765 0.16052425 653
4.9732361 -0.40565282 0.23196322 698.33337
4.6299906 -0.25823197 0.17456031 327
4.6673284 -0.25927681 0.27506268 311
4.8271732 -0.17217392 0.2700991 291
4.9147959 -0.094082199 0.26742157 270
4.9553485 -0.012121838 0.2661708 283
4.9390411 0.086011156 0.26673833 276
4.6774545 0.28364277 0.22369745 311
4.8198709 0.17995755 0.2703433 295
5.0978436 0.23043959 0.26332062 531
4.6363544 0.32634035 0.27663422 333
4.6509962 0.33394539 0.17423522 311
4.9907246 -0.64038205 0.38488799 855
5.0202131 -0.52335799 0.38202897 316
4.954988 -0.39330399 0.37986276 1840
4.6930976 -0.24694537 0.37876552 307
4.8133798 -0.27977848 0.37875301 279
5.0707908 -0.17508981 0.37698585 319
4.8850551 -0.13338171 0.37727088 279
4.9793091 -0.035861015 0.37666738 307
4.9199228 0.099244192 0.3770057 289
5.0014248 0.072585799 0.37667823 303
4.7653174 0.29500294 0.37909299 263
4.8011141 0.21014044 0.37807256 285
5.0330768 0.19293334 0.37722951 345
4.6522446 0.3210395 0.37981123 317
5.033989 -0.6432749 0.50004345 411
5.0153418 -0.52042794 0.49644968 312
4.9739771 -0.39304981 0.49296269 1488
4.8765388 -0.26121345 0.48895544 273
5.2148628 -0.23585603 0.49580389 432.5
4.9397073 -0.048168249 0.48874271 2117
5.0183377 -0.082931861 0.4905881 565
4.9380088 0.093894251 0.48885733 2189
4.9923072 0.077445693 0.48993796 477
5.0610542 0.21573512 0.49230403 469
5.1007552 0.20022495 0.49299014 371
5.0660625 -0.64278221 0.65768695 315
5.12395 -0.65135956 0.74071902 297
5.0373607 -0.51866531 0.65263718 289
5.1050401 -0.52767336 0.73543233 297
5.0498137 -0.39752468 0.64987129 591.66669
5.1274562 -0.39997497 0.73371077 293
5.0517673 -0.15586968 0.72469991 333
5.1735649 -0.15379447 0.67305201 284
5.2729445 -0.1694714 0.61791974 452
5.0223789 -0.035703212 0.6638056 781.5
5.0302052 0.086273625 0.66452485 869
5.0234365 0.20139316 0.66508627 292
5.1179638 0.2108361 0.67038286 304
5.1419382 -0.65174651 0.86253589 237
5.1271405 -0.52798039 0.85678786 257
5.1805282 -0.4119944 0.85848403 275
5.0978909 -0.1584108 0.84637439 303
5.2026086 -0.15452252 0.85620415 265
5.0705104 -0.038817339 0.84307241 357
5.1900225 -0.033619087 0.85433847 259
5.0998688 0.07964699 0.84598994 303
5.2150674 0.096422322 0.85694462 289
5.0973935 0.19811639 0.8467586 291
5.0859942 -0.027410259 0.96266538 289
5.2367983 -0.04545968 0.98063827 261
5.2493229 0.076204918 0.98224783 289
5.0501928 -0.030728702 1.1521914 275
5.1083226 -0.049393833 1.0833502 269
5.0578318 0.064880796 1.1335733 290
5.1024828 0.10396178 1.0828141 376
