# .PCD v0.7 - Point Cloud Data file format
VERSION 0.7
FIELDS x y z intensity
SIZE 4 4 4 4
TYPE F F F F
COUNT 1 1 1 1
WIDTH 1
HEIGHT 59
VIEWPOINT 0 0 0 1 0 0 0
POINTS 59
DATA ascii
4.4213324 0.69784844 0.050498918 307.5
3.962563 -0.20397697 0.074508183 437.39999
3.9468782 -0.088794455 0.091672629 414.20001
3.9411855 0.03721061 0.092082344 819.20001
3.5604897 0.39960301 0.063964024 368
3.5615849 0.46890905 0.082570672 393
3.9503851 -0.2138734 0.25104526 1234.5
3.9826026 -0.07331761 0.24896601 427.75
3.9576535 0.068569332 0.24984442 1264
3.5931878 0.29725635 0.15107158 226
3.8581507 0.23415665 0.29644209 208
3.5443559 0.37282091 0.18552014 388.60001
3.6076801 0.36401817 0.22715147 378.5
3.5810199 0.47355568 0.15441057 385
3.6152854 0.49787793 0.22914225 377
3.9763031 -0.21394324 0.38066524 1314
3.9994304 -0.073092207 0.37961739 405
3.9685659 0.055695426 0.37958324 2103
4.0930753 0.083397463 0.37932378 269
3.9326191 0.25475213 0.38130334 340
4.1096992 0.18150257 0.37992334 138
3.5722251 0.36044767 0.30601817 396
3.6732929 0.36918378 0.35689148 324
3.6401181 0.49808472 0.3474007 406
3.9972415 -0.21367371 0.51556146 1525.5
4.0138597 -0.073106952 0.51491743 378.5
4.0284796 0.07026574 0.50007719 660.33337
4.0575318 0.065015465 0.56215841 429
3.8874893 0.25039443 0.46832678 1163
3.9318891 0.19185734 0.52796316 608.66669
3.6952655 0.35738438 0.46647662 340.33334
3.8131518 0.3961924 0.52780521 1073.6667
3.9074044 0.38523957 0.56019872 587
3.7340653 0.51441967 0.47143197 315
4.0112419 -0.21644104 0.69906414 1798
4.0536671 -0.2134372 0.65591097 527
4.043231 -0.056940235 0.68462867 374.33334
4.0653539 -0.082790755 0.71133095 372.39999
4.0825701 0.069296017 0.65648711 384.5
3.9974377 0.20861702 0.69779432 342.75
3.9686973 0.37890422 0.68412125 319
4.1218762 -0.21986702 0.80316496 283
4.1639795 -0.025265044 0.85303736 354.5
4.2009625 -0.13379544 0.85813671 267
3.9539194 0.14959732 0.82900602 3283
4.1241956 0.06956245 0.80135357 305.5
3.9806247 0.22507064 0.83345908 1330.3334
4.0115757 0.37954313 0.81028652 793.66669
4.0877843 0.44225845 0.8521384 313
4.1095729 0.46116519 0.80818146 299
4.0214295 0.25850707 0.96086156 369.66669
4.0928388 0.1898443 0.96999639 309
4.0238342 0.33847839 0.93316126 371
4.1038432 0.38173446 0.97670639 318.33334
3.9361567 0.24464689 1.1381044 362
4.0771236 0.18547468 1.1204586 303
3.9910879 0.3213104 1.1514082 313
4.0340567 0.20371452 1.2446189 273
4.0268288 0.31593934 1.2898878 241
