# .PCD v0.7 - Point Cloud Data file format
VERSION 0.7
FIELDS x y z intensity
SIZE 4 4 4 4
TYPE F F F F
COUNT 1 1 1 1
WIDTH 1
HEIGHT 67
VIEWPOINT 0 0 0 1 0 0 0
POINTS 67
DATA ascii
4.2931643 0.63381517 0.015126616 414
3.951756 -0.19716933 0.083594128 684
3.9682176 -0.059266873 0.08989197 421
3.9254637 0.029982068 0.0717557 1569
3.5349078 0.28885707 0.083077163 200
3.4157701 0.34162721 0.050044082 344.33334
3.5646744 0.40612397 0.081472337 359
3.6617949 0.30274075 0.14613193 263
3.5820925 0.46602711 0.080575407 375
3.6401 0.47216254 0.0025576353 329
3.9623954 -0.21796197 0.25061557 1311.5
3.9905767 -0.075236775 0.24865699 425
3.9662056 0.053223681 0.24969563 1316
4.0598121 0.14772916 0.29031777 78
3.960125 0.23730622 0.29374534 424
3.5521536 0.36889851 0.17371795 411.5
3.6411176 0.37530619 0.22561434 341
3.5936673 0.46956065 0.15341234 383
3.6789474 0.50425828 0.22601791 404.5
3.9910707 -0.21823037 0.38066784 1104
4.0151606 -0.075145245 0.37957662 398
4.0148387 0.068995669 0.37949547 292.5
3.9251161 0.25433689 0.3813253 306
4.1178274 0.16727808 0.37977988 369
3.5855095 0.33027273 0.30511481 423
3.6656919 0.37451774 0.3520847 355
3.8195322 0.38131869 0.34262559 301
3.654438 0.49684751 0.34708592 381
4.01724 -0.21825588 0.51635647 697
4.0203104 -0.072932214 0.49990496 380.66669
4.0618935 -0.081077926 0.56250834 379
4.0230246 0.068846084 0.46945316 357
4.0524521 0.069710769 0.56194806 366
4.2672186 0.07234472 0.57170534 259
3.946152 0.21177258 0.5202449 872.71429
3.6860776 0.37294662 0.46664664 324
3.8468204 0.3810153 0.51369685 1224
3.9623413 0.39258069 0.56281525 312
3.6877084 0.50670826 0.47031599 387
4.0465188 -0.21935514 0.70187497 911
4.0583005 -0.21969658 0.65632832 409
4.0403266 -0.073088609 0.65362763 374
4.0666022 -0.0770026 0.70201433 374.5
4.1278825 0.073787495 0.65967274 273
4.2157903 0.067965187 0.66578108 273
3.9991031 0.21465942 0.69165152 353.28574
4.0697331 0.15858045 0.74955553 309
3.9664462 0.3666071 0.67597729 326.5
4.1230698 0.51077831 0.66825271 361
4.1127958 -0.22274607 0.80179948 316
4.1225181 -0.077739246 0.80113137 337.5
4.1206961 0.06940268 0.80111623 314.75
3.9995708 0.18841903 0.83506489 933.66669
4.067893 0.26267496 0.84449416 313
4.024437 0.377428 0.81169569 726.33337
4.0563221 0.39600253 0.80019528 317
4.1310868 0.46668565 0.76264006 285
3.9524622 0.1440783 0.91862291 2523
4.0124946 0.25226879 0.97427785 391.5
4.1383471 0.17570134 0.94566423 297
3.9652305 0.32724032 0.92449754 1801
4.0940723 0.38301432 0.99104428 319
3.9737122 0.21462265 1.1361469 357.60001
4.1016669 0.3276253 1.1289494 404
3.9987633 0.22240259 1.2802024 301
4.0501509 0.2729415 1.2067571 297
4.0116868 0.31155494 1.2428114 329.5
