# .PCD v0.7 - Point Cloud Data file format
VERSION 0.7
FIELDS x y z intensity
SIZE 4 4 4 4
TYPE F F F F
COUNT 1 1 1 1
WIDTH 1
HEIGHT 86
VIEWPOINT 0 0 0 1 0 0 0
POINTS 86
DATA ascii
4.6735563 -1.8046772 0.11410892 296
3.1266766 -0.65613484 0.066000752 2031
3.1774263 -0.61254311 0.090249211 497
3.1726468 -0.52759391 0.079089977 510.77777
2.799789 -0.3158496 0.063847482 507
2.9500949 -0.34695053 0.081590414 599
3.1245799 -0.37137857 0.1229184 2149
3.1772482 -0.42943627 0.087365359 527
2.82201 -0.25417712 0.069362596 508.5
2.8592701 -0.24297433 0.14671543 579
3.2131598 -0.22878414 0.11306652 601
2.8700747 0.28579283 0.090973787 526.66669
2.8138306 0.36010852 0.065933339 528.20001
2.8696439 0.38760003 0.12871613 366
3.1847072 -0.63455665 0.22124675 1328.5
3.1974111 -0.5194056 0.217502 495.5
2.8271835 -0.30356428 0.20785956 548.33337
3.1809285 -0.400563 0.21610482 1384
2.8313022 -0.25727338 0.18734738 533
2.896277 -0.23237601 0.24601947 470
3.328788 -0.19944894 0.23901334 272
2.9068797 0.26891178 0.23085393 455
2.8324277 0.36126596 0.17915672 538
2.8863087 0.32974377 0.23923521 500.60001
3.2119133 -0.63473994 0.35915154 789
3.2259943 -0.51963961 0.35494095 508.75
2.8729107 -0.30025509 0.32409087 565
3.2031307 -0.39997092 0.35207516 1395.5
2.9042046 -0.2497877 0.37836695 482.33334
3.0381889 -0.16325368 0.35020936 359.25
3.1024902 -0.05462154 0.35357097 368.14288
3.47558 -0.091541342 0.30549622 495
3.0970428 0.081268981 0.37482247 409.66666
2.9396629 0.25378689 0.37228999 492.20001
3.0363386 0.18967389 0.38342366 395
3.1710763 0.21489435 0.31465399 271
2.8817186 0.31504387 0.38658065 517.5
3.0065873 0.38952515 0.32228336 269
3.262532 -0.63952577 0.50515389 519.5
3.2371681 -0.51669067 0.49886566 478.75
3.2087774 -0.39687893 0.49394065 2181
3.0908859 -0.15877208 0.45058244 313
3.2449889 -0.17411172 0.57477176 348.33334
3.3187389 -0.17995507 0.49266437 701
3.1308029 -0.094005942 0.45079556 334
3.186708 -0.040688064 0.52294475 1028.5
3.1163516 0.12718485 0.48544946 420
3.215657 0.063363776 0.53623635 891.66669
3.2362385 0.22496888 0.5267275 484
3.3114905 0.20713541 0.49287623 304
3.2774458 -0.63644373 0.65578818 484
3.1938336 -0.50407803 0.64228326 375.75
3.2585762 -0.39969477 0.64292377 443.5
3.2763243 -0.17685519 0.67523712 373
3.3134775 -0.17253347 0.67865181 405
3.248508 -0.063775167 0.69559997 946.77777
3.3039694 -0.098897293 0.60236275 331
3.2573094 0.094067864 0.69673073 913.44446
3.3127763 0.12973484 0.60328674 407
3.2742536 0.2041481 0.65093493 413
3.2727096 -0.63803512 0.76854324 485
3.3503714 -0.6423012 0.82913601 398.66669
3.2507865 -0.50396979 0.77296549 321.39999
3.3558292 -0.52596104 0.84775031 300
3.3517394 -0.40811422 0.80340707 332
3.293164 -0.1803381 0.75118947 407
3.332859 -0.17323753 0.80569303 426.33334
3.2475309 -0.06888742 0.81699157 2285
3.33601 -0.050665386 0.82954139 399
3.2443101 0.078607813 0.81661487 2492
3.3361981 0.10158463 0.8300063 368
3.296036 0.1976528 0.75187558 447
3.3365438 0.20868509 0.8069669 396.33334
3.4081435 -0.19229496 0.91765666 299
3.2592573 -0.0042836075 0.99718964 323
3.3450413 -0.06076118 0.9052102 363
3.468658 -0.041507278 1.0023023 295
3.2429125 0.031840667 1.0291076 323
3.3791492 0.066647343 0.94081873 344.80002
3.314395 0.19022758 0.90197837 377
3.2783051 -0.053933352 1.1508389 304.33334
3.3663096 -0.065214097 1.0793746 312.66669
3.2406967 0.014561856 1.1301787 339.5
3.3564315 0.076542072 1.1243374 272.33334
3.2194538 -0.050214581 1.2221212 343
3.215529 0.014237741 1.2208207 361
