# .PCD v0.7 - Point Cloud Data file format
VERSION 0.7
FIELDS x y z intensity
SIZE 4 4 4 4
TYPE F F F F
COUNT 1 1 1 1
WIDTH 1
HEIGHT 84
VIEWPOINT 0 0 0 1 0 0 0
POINTS 84
DATA ascii
6.4084997 -1.8015404 0.12226504 294
4.934988 -0.63966691 0.057629019 1066
4.9733367 -0.52367383 0.053095132 312
4.7953405 -0.35596585 0.064147949 557
4.9666333 -0.42618996 0.052390158 321
4.6455846 -0.22993824 0.074031293 317
4.6541634 -0.28839275 0.073824048 307
4.6439953 0.27537724 0.074461937 319
4.6053939 0.34133175 0.077828109 331
4.9369545 -0.66882503 0.16504711 1961
4.9893894 -0.63164276 0.23548774 795
5.0059934 -0.52380657 0.21437612 312.5
4.9420261 -0.37314528 0.21462521 1496
4.9700632 -0.41556659 0.21398509 433
4.6217122 -0.27999887 0.17515779 335
4.6687217 -0.25032949 0.24085353 310.33334
4.8321509 -0.17279418 0.26997089 287
4.9540219 -0.056793187 0.2662608 303
5.1512804 -0.011912768 0.26099223 511
4.9628205 0.071403138 0.26606148 293
5.1500683 0.10972711 0.26122791 581
4.6580362 0.28197521 0.22441998 321
4.8378167 0.18151832 0.2698769 295
4.6453409 0.33466783 0.22549355 320
5.0008702 -0.639916 0.38483131 960
5.0238791 -0.5220747 0.38198677 322
4.9606228 -0.39199471 0.37982088 1948
4.6952329 -0.24455681 0.37873346 313
4.8064198 -0.2789115 0.37876517 267
5.0128126 -0.1734225 0.37714612 275
4.8941693 -0.12948805 0.37722313 289
4.9913244 -0.034284573 0.37663031 304
4.9229312 0.098870061 0.3769955 297
4.9993544 0.076998539 0.37669754 307
4.7713323 0.294972 0.37907308 279
4.8219824 0.2134539 0.37803859 291
5.0280452 0.19361697 0.37725002 335
4.6539183 0.3255361 0.37986887 323
5.0312481 -0.64111483 0.49992976 506
5.0418644 -0.52164388 0.49700418 317
4.9771171 -0.39153194 0.49299863 1827
4.7748694 -0.25290701 0.48674041 255
5.2153783 -0.23567207 0.49581149 405.5
4.9357357 -0.045503184 0.48865294 2371
5.033391 -0.081000619 0.49089402 309
4.9462504 0.081069559 0.48897922 1691
5.006989 0.094837569 0.49031615 435
4.9281111 0.21214263 0.48948872 235
5.0757456 0.20008564 0.49246484 1213
4.7800131 0.32821253 0.48789531 243
5.0795932 -0.64201421 0.65841115 315.66669
5.1189456 -0.65114617 0.74037379 301
5.0590286 -0.51966697 0.65355152 295
5.1102958 -0.52551925 0.73572862 295
5.0410972 -0.39497098 0.6106444 373
5.1319103 -0.40055084 0.73403108 294
5.0175781 -0.21214181 0.66566414 280
5.2424612 -0.15398379 0.73797846 267
5.3378234 -0.17214242 0.62087929 271
4.9271207 -0.026905715 0.60153735 2055
5.0201836 -0.036227118 0.68304002 915.66669
5.1896944 -0.14754839 0.61397946 297
5.0458832 0.088553362 0.66553289 826.5
5.0128975 0.20260108 0.66441512 297
5.1513224 0.21400674 0.6719116 303
5.1454487 -0.6480909 0.86271602 301
5.1282048 -0.52741241 0.85686857 293
5.1209679 -0.40744859 0.85281301 299
5.0632038 -0.15306391 0.84305537 321
5.1826925 -0.15435292 0.85432601 271
5.0018239 -0.037608605 0.8365882 2003
5.2099519 -0.031021954 0.85621411 265
5.015264 0.07781329 0.8380003 1697
5.2080064 0.10085365 0.85630482 287
5.0843592 0.20003441 0.84555501 305
5.1802387 0.21790743 0.85480297 148
5.2183843 -0.16273926 0.97924012 241
5.0909739 -0.024789099 0.96325296 295
5.2209167 -0.044639174 0.97874773 269
5.2056432 0.075082548 0.97705024 289
5.2408366 0.20002571 0.98234195 448
5.0474424 -0.033616822 1.1322991 274.5
5.0538988 0.064394817 1.1328764 282
5.0155215 0.055622935 1.2983807 316
