# .PCD v0.7 - Point Cloud Data file format
VERSION 0.7
FIELDS x y z intensity
SIZE 4 4 4 4
TYPE F F F F
COUNT 1 1 1 1
WIDTH 1
HEIGHT 97
VIEWPOINT 0 0 0 1 0 0 0
POINTS 97
DATA ascii
4.7264395 -1.8610122 0.11240852 280
3.135617 -0.65706635 0.064823925 2102.3335
3.1727986 -0.61040676 0.090811551 505
3.1891224 -0.52147478 0.087522462 508.75
2.7967749 -0.31505007 0.047705956 516.5
2.9826107 -0.35115987 0.077848732 861
3.1216178 -0.37099317 0.12319553 2211
3.1734762 -0.42773837 0.08776474 527
2.8268182 -0.25766623 0.059989028 511.66669
2.8590598 -0.25290072 0.12830664 528.33337
3.1497154 -0.22274192 0.11902782 752
2.8371341 0.29077211 0.041111946 559
2.8728671 0.28503892 0.101601 528.60004
2.8214235 0.36067727 0.067407668 534.42859
2.8888724 0.41805673 0.089505732 313
3.1908021 -0.63468987 0.22080921 1296.5
3.2111955 -0.52094287 0.21665661 490.5
2.8265419 -0.30679762 0.15048905 537
2.8564024 -0.30388114 0.23448183 548
3.1393557 -0.37507376 0.18525997 2267
3.1873145 -0.40729105 0.22692113 1097.6667
2.8878105 -0.23967493 0.2318022 503.33334
3.2321832 -0.19201927 0.24377134 372
3.370168 -0.20543315 0.16643482 178
3.4138598 -0.040994357 0.23389533 475
3.4178751 0.039433725 0.23369297 511
2.8443775 0.29703236 0.20572749 595
2.9157329 0.2706843 0.23038812 448
3.039434 0.24982333 0.2540653 380
3.3229825 0.19633473 0.23927459 284
2.8319225 0.33636305 0.1503391 501
2.8888996 0.34426281 0.23939507 482.60001
3.2429385 -0.64027095 0.35865188 736
3.2399123 -0.52127862 0.35474575 505.75
3.2079153 -0.40004903 0.35200757 1438.5
2.9127343 -0.24684609 0.36797094 463.54547
3.0754323 -0.15985726 0.36031842 321.66669
3.1062226 -0.053638179 0.35356703 460.71429
3.2907193 -0.086262308 0.31036946 315
3.0873523 0.08323954 0.37291786 487.57144
3.1547267 0.039261453 0.31380248 329
2.9423416 0.25521019 0.37231031 472.20001
3.0642557 0.19423541 0.35003859 372.5
2.8983624 0.31826898 0.35497653 586.5
3.2605717 -0.63795227 0.50499594 510
3.2355921 -0.51552993 0.49877384 477.25
3.2073689 -0.39612824 0.493837 2177.5
3.0949461 -0.15779798 0.45065504 303
3.2392316 -0.17322999 0.56249851 344
3.3272862 -0.17920879 0.49312341 714
3.1847377 -0.054078862 0.49895662 991.22223
3.1165023 0.12484092 0.47392783 414.33334
3.2324433 0.064244397 0.53718221 886.66669
3.0632794 0.19880526 0.45056194 343
3.2005754 0.19911149 0.56059623 368
3.3378916 0.20940402 0.49345425 301
2.9075606 0.32347438 0.45001918 553
3.2771966 -0.63523322 0.6556989 478
3.2010865 -0.50452757 0.64284718 376
3.2393856 -0.39809427 0.62897485 445
3.3045673 -0.40064678 0.68412119 307
3.2680311 -0.17407554 0.63767135 374
3.3105605 -0.17124091 0.67835641 411
3.2593944 -0.058878779 0.68677348 828.60004
3.3009877 -0.098510593 0.60215157 715
3.253861 0.090277009 0.69937497 949.25
3.3140965 0.13230211 0.64078081 368
3.2756646 0.2032319 0.63869172 407
3.3090565 0.21035796 0.67893624 419
3.3430884 -0.6426267 0.81546938 418.25
3.2375336 -0.50686473 0.75671482 329
3.32196 -0.50954843 0.84207773 303.66669
3.5276382 -0.58458197 0.87485373 297
3.299278 -0.39456734 0.75840074 423
3.3670287 -0.41152808 0.81816453 301.66669
3.2942309 -0.17915088 0.75129312 405
3.3250244 -0.17161477 0.8045187 426.33334
3.2460537 -0.068254083 0.81677735 2283
3.3310823 -0.049225844 0.8288281 411
3.2393222 0.079833262 0.8159132 2645
3.3317237 0.10189454 0.82937181 377
3.3374982 0.20719138 0.79474247 401
3.4352336 -0.50943518 0.93522996 452
3.3786926 -0.18922302 0.91267568 327
3.2709885 -0.0029202818 0.99972212 317
3.3591332 -0.056728929 0.95983654 351.42859
3.2751625 0.033151463 1.0360452 323
3.3729436 0.076048523 0.93988842 334.20001
3.4845965 0.14970958 0.92955965 311
3.312418 0.19023217 0.90164894 405
3.2488613 -0.052357506 1.1436491 325
3.3462005 -0.072570197 1.1223197 289
3.2610993 0.015739715 1.1351275 319.5
3.3681712 0.076841503 1.1268106 251.66667
3.2194726 -0.049165137 1.2221175 357
3.3823652 -0.060567033 1.3003895 366
3.2398591 0.016861783 1.2486199 350.33334
