# .PCD v0.7 - Point Cloud Data file format
VERSION 0.7
FIELDS x y z intensity
SIZE 4 4 4 4
TYPE F F F F
COUNT 1 1 1 1
WIDTH 1
HEIGHT 64
VIEWPOINT 0 0 0 1 0 0 0
POINTS 64
DATA ascii
4.4308467 0.68094981 0.04968112 358.75
3.8833497 -0.23592882 0.049690813 2149
3.9391022 -0.22282737 0.10500263 605.75
3.9554477 -0.095074974 0.083013043 419
3.9613552 0.051486637 0.090500228 414
3.533803 0.28871185 0.048308045 328
3.3515489 0.33511111 0.034812689 341
3.5337501 0.37894803 0.049075305 358
3.6715188 0.40823162 0.071355492 321
3.6605449 0.48824909 0.14880887 305
3.9776921 -0.21340296 0.2499679 428
3.9874578 -0.079314046 0.25497791 427.57144
3.976742 0.027650423 0.20592821 384.5
3.5754108 0.29756552 0.19019897 389
3.9454532 0.24718665 0.29424679 233
4.0853782 0.15884767 0.2897135 330
3.5490549 0.3732017 0.180143 400.33334
3.6479325 0.41059929 0.20027003 349.66669
3.8558192 0.42454472 0.29941398 321
3.6331906 0.48610705 0.22797436 335
3.9933982 -0.21285483 0.38059849 397
4.0065336 -0.068933897 0.37957746 398
3.9323649 0.22564986 0.38100165 327.33334
3.646626 0.36656919 0.35015109 386.42859
3.664464 0.49925575 0.36050519 355.66669
4.017087 -0.21269135 0.50077403 385.66669
4.0549421 -0.21489309 0.56338054 375
4.0112724 -0.077359587 0.48756376 384.20001
4.0617428 -0.054817751 0.56237793 382.33334
4.1372323 0.077168383 0.56583035 301
3.9363668 0.2115415 0.51357299 705.5
3.7038965 0.38453025 0.46727678 354
3.8647971 0.38892767 0.51453757 887
3.9820302 0.39632809 0.56377918 308
3.7378755 0.51598173 0.47155321 317
4.0435061 -0.21636465 0.65525013 381
4.0658388 -0.21023555 0.65670818 373
4.0469785 -0.11626097 0.65431154 377
4.0673752 -0.070134431 0.67883408 372
3.9989669 0.071752325 0.6964069 291
4.2085938 0.079180025 0.66533482 243
4.0105891 0.20615318 0.69217509 343.28574
4.0004168 0.35335225 0.68554795 323.66669
4.0209503 0.45470193 0.65937126 297
4.1182337 0.4644936 0.66629308 287
4.0925817 -0.30504167 0.75431359 382
4.1167865 -0.21951374 0.78660524 327.66669
4.1313748 -0.062531441 0.79292881 282
3.9819579 0.080235668 0.8316443 1795
4.0933504 0.073261946 0.79759914 280
3.9831319 0.16313869 0.83266056 1832
4.0600128 0.2657598 0.81252879 328.33334
4.0160923 0.3572194 0.84087527 1853
4.0790033 0.35692486 0.80111659 304
4.1359034 0.45866883 0.8109628 288
4.0285683 0.14843361 0.92956692 407
4.1181531 0.06352783 0.94156748 273
4.0309248 0.25492978 0.99248981 348.33334
4.0712233 0.21486518 0.96757495 319.66669
4.109252 0.34990871 0.9456377 311
3.8988106 0.2229147 1.1729441 357
3.9772477 0.23095551 1.1024884 367.66669
4.0284348 0.20782442 1.2435004 281
4.0785851 0.28567633 1.2132356 263
