# .PCD v0.7 - Point Cloud Data file format
VERSION 0.7
FIELDS x y z intensity
SIZE 4 4 4 4
TYPE F F F F
COUNT 1 1 1 1
WIDTH 1
HEIGHT 51
VIEWPOINT 0 0 0 1 0 0 0
POINTS 51
DATA ascii
2.8694837 0.071208045 0.14472997 300
2.6688013 0.2723043 0.05260966 365.5
2.7676189 0.26990786 0.050478548 317
2.6105752 0.32222715 0.072783008 408.66669
2.6544566 0.52218807 0.068864889 428.33334
2.7689395 0.48459995 0.052699424 353
2.8872702 0.068387382 0.20067522 280
2.599407 0.27900088 0.23663409 410
2.5464475 0.32394683 0.28022596 461
2.582375 0.33936778 0.22606888 427.57144
2.7172732 0.41362372 0.21704903 643
2.6393058 0.51467443 0.23441014 420.16669
2.7014055 0.58202219 0.16724819 325
2.7981956 0.10962277 0.39548227 368.39999
2.9173408 0.062531523 0.32015526 132
2.5492485 0.285 0.38692984 363
2.6449921 0.24889977 0.39179847 400.27274
2.7584965 0.18576573 0.38375899 455
2.5261002 0.34875298 0.34822601 497.5
2.6247821 0.37946373 0.38919914 360
2.7486062 0.38327321 0.42866796 343
2.6260784 0.51335567 0.36253044 436.11111
2.7973707 0.11191949 0.52593005 1713
2.8841634 0.11267572 0.57325673 341
2.7784474 0.21656577 0.53413981 1291.4445
2.8067431 0.35785371 0.51152533 550.5
2.8824937 0.37929064 0.54089338 410.60001
2.7879696 0.50545239 0.45408928 305
2.9537535 0.45955274 0.58793449 309
2.7861819 0.10821091 0.65881079 541
2.8787138 0.084375367 0.66837126 333.5
3.0639358 0.045585409 0.72232896 279
2.7900853 0.22641572 0.65420794 441
2.9032655 0.22003347 0.70611852 532
2.805788 0.30697343 0.63475001 507
2.9143431 0.39166018 0.68585521 398.42859
2.9429541 0.45891014 0.687208 369
2.8959408 0.10184863 0.80941457 433
2.8261933 0.22349364 0.82165998 2899
2.9024875 0.21163516 0.81005651 856
2.9345055 0.36637971 0.81337184 742.20001
2.9886792 0.46793711 0.79343808 447
3.0531604 0.13230343 0.92393124 406
2.936255 0.25762239 0.96006149 355.75
3.0105639 0.1998165 0.91743433 337
2.9382203 0.34606254 0.9880867 326.5
3.0405777 0.34117991 0.92865074 303
2.9001427 0.24882773 1.1090845 365.66669
3.059238 0.22197106 1.0784428 271
2.8932176 0.33821139 1.1024187 347
3.036315 0.34640589 1.1811432 253
