# .PCD v0.7 - Point Cloud Data file format
VERSION 0.7
FIELDS x y z intensity
SIZE 4 4 4 4
TYPE F F F F
COUNT 1 1 1 1
WIDTH 1
HEIGHT 62
VIEWPOINT 0 0 0 1 0 0 0
POINTS 62
DATA ascii
4.6748929 -1.8040376 0.11397088 308
2.809015 -0.31918997 0.062583253 479
2.8226132 -0.26073936 0.08563403 504.20001
2.8506219 -0.24989772 0.14760011 565
2.8805013 0.28195423 0.089895956 517.33337
2.8218315 0.37422925 0.065073222 520.20001
2.858501 0.34156522 0.12008655 489
2.833015 -0.30567512 0.17830691 548
2.8712714 -0.30369005 0.263338 549
2.8361771 -0.27100295 0.20598292 539
2.8885798 -0.23695174 0.23758093 503
2.8985944 0.28079492 0.23165268 502.5
2.826107 0.35740939 0.15117094 561
2.8699839 0.34997952 0.23455568 468.5
2.899617 -0.25647768 0.37303549 488.20001
3.0326719 -0.16473226 0.38365412 342.5
3.0960343 -0.055830225 0.35367557 403.00003
3.0981226 0.081029251 0.37282652 425.28574
3.1808186 0.031079326 0.31309599 313
2.9218915 0.26543841 0.36730254 496.42859
3.0425975 0.18619056 0.38340491 403.5
3.2185566 0.20972013 0.31331572 267
2.9149363 0.34728557 0.37409064 478.39999
3.2465837 -0.17522328 0.57497323 348.33334
3.3177009 -0.1804387 0.4927952 542
3.1344016 -0.079766162 0.48572493 1061
3.2025211 -0.035572805 0.52368641 817
3.1019256 0.12269728 0.4733119 425
3.2174785 0.068745941 0.54514617 893.85718
3.2291508 0.19689342 0.52599955 362
3.0331419 0.31730974 0.45232636 245
3.2584851 -0.17497462 0.67353016 355
3.3054118 -0.17404872 0.67791981 415
3.2563021 -0.061397389 0.69027644 910.5
3.3079667 -0.098745272 0.60264015 329
3.2611685 0.087041013 0.70000255 1043
3.3106415 0.13015042 0.67776567 325
3.276958 0.19862089 0.63887107 421
3.3041303 0.20945369 0.67845643 415
3.3194606 -0.17541215 0.79145682 417
3.2552707 -0.074499533 0.81816113 2077
3.3248439 -0.071104139 0.80335569 383.66669
3.2566593 0.07949914 0.81839263 2444
3.3269432 0.095684923 0.82862985 377
3.2954249 0.18682301 0.78857505 465
3.3495371 0.21617493 0.79659462 378
3.3461819 -0.18765476 0.90721893 345
3.2764239 -0.0034968867 1.0005898 314
3.3572795 -0.063283823 0.90729201 355
3.4529147 -0.043451861 0.99930012 283
3.2653944 0.032351613 1.033942 313
3.3579946 0.063159764 0.95616454 311.33334
3.4855299 0.13167864 0.96817672 353
3.3237977 0.18216357 0.90336239 379
3.2579772 -0.054857783 1.1455038 312.33334
3.3535907 -0.059399031 1.0885317 286
3.467885 -0.080111332 1.0778217 408
3.2410097 0.015076753 1.1299503 323.5
3.3144588 0.068505876 1.1487235 294
3.2213426 -0.052191246 1.222671 331
3.2015336 0.021807393 1.216892 403
3.3315389 0.0079797208 1.253525 392
