# .PCD v0.7 - Point Cloud Data file format
VERSION 0.7
FIELDS x y z intensity
SIZE 4 4 4 4
TYPE F F F F
COUNT 1 1 1 1
WIDTH 1
HEIGHT 69
VIEWPOINT 0 0 0 1 0 0 0
POINTS 69
DATA ascii
4.4663143 0.70224035 0.093303084 307
3.9442165 -0.19785844 0.084265068 575
3.9463449 -0.050775182 0.083576642 416.66669
3.8886921 0.040462822 0.048453093 2177
3.9191818 0.044829655 0.12591335 2155
3.570529 0.29296479 0.079736829 319
3.3905375 0.32444581 0.063289702 348
3.5644059 0.39623436 0.057664674 337.66669
3.6507809 0.30273321 0.14693433 299
3.5658898 0.45856404 0.046559632 383
3.9550495 -0.21923976 0.25096637 1293
3.9824507 -0.076377273 0.24902421 421.5
4.0021949 0.051954012 0.24823028 984
3.9611442 0.23703299 0.29371518 315
3.5576019 0.36705315 0.17318919 413.5
3.6232696 0.37326503 0.226482 351.66669
3.623029 0.47039202 0.18971308 419
3.9809749 -0.21937552 0.38071483 1259
3.9951489 -0.076123752 0.37963563 406
4.0838289 0.10337562 0.37949306 334
3.8423541 0.26256636 0.38170618 236
3.9775176 0.20792632 0.38062066 430.5
3.5908854 0.32668516 0.30490935 417
3.6689963 0.36276612 0.34387252 344.33334
3.7724237 0.43225569 0.38514781 283
3.6865666 0.49991578 0.34673417 348.5
4.0024815 -0.21678835 0.50061315 859.66669
4.0510936 -0.22918479 0.56340998 573
4.0283618 -0.082859844 0.50888574 379.28574
4.0669594 -0.03081521 0.56248182 379
3.9743423 0.10908059 0.51394242 316
4.2005792 0.065194234 0.47318524 271
3.86836 0.23708937 0.46773577 327
3.9387751 0.23302028 0.53636897 845
3.6718678 0.36931705 0.46628439 326
3.8019319 0.35989887 0.52575052 749.66669
3.9795082 0.40945801 0.53426963 313.66669
3.6519656 0.50238055 0.4695068 399
4.090209 0.55150747 0.52584898 435
4.0316448 -0.21744765 0.70077646 493
4.0958691 -0.22650829 0.65904212 359
4.0312352 -0.12289229 0.74553984 385
4.0761027 -0.06888406 0.67472315 358.60001
4.041749 0.060282983 0.7460832 388
4.1753454 0.069970533 0.66296732 300
3.876771 0.15630518 0.64284974 319
3.995445 0.20502359 0.69763464 828.66669
3.971477 0.3737039 0.69943821 535
4.0710874 0.45558167 0.66280508 301
4.1152296 -0.22464436 0.80158442 315.5
4.1104755 -0.06406761 0.81515568 306.33334
4.0495415 0.078227945 0.83966166 244
4.0860043 0.06582658 0.79695368 319.5
3.9919875 0.19905901 0.8343612 389
4.0668707 0.22851953 0.81265539 338.33334
3.9965968 0.33129787 0.83782071 303
4.1110039 0.40312362 0.85353565 300
4.1619434 0.46859154 0.76555383 299
3.9553888 0.1452059 0.91905683 3239
4.1027269 0.1460717 1.0327977 346
3.9877787 0.25425813 0.95524853 425
4.0750151 0.20615113 1.029263 309
3.9804125 0.37242007 0.9282316 1762
4.098834 0.37825859 1.0381937 303.5
3.9790053 0.23967098 1.1319774 347
4.0943122 0.17587343 1.1235588 283
3.983602 0.30757305 1.1936803 319
3.9755623 0.2193498 1.2746184 297
4.0635896 0.30859897 1.2983034 283
