# .PCD v0.7 - Point Cloud Data file format
VERSION 0.7
FIELDS x y z intensity
SIZE 4 4 4 4
TYPE F F F F
COUNT 1 1 1 1
WIDTH 1
HEIGHT 53
VIEWPOINT 0 0 0 1 0 0 0
POINTS 53
DATA ascii
3.9547358 -0.074946709 0.096110642 401
3.9455917 0.060321949 0.097102851 984
3.9481764 -0.21747436 0.25121471 1279.5
3.9753475 -0.074866705 0.24929926 428.75
3.9683998 0.063051485 0.26392528 1547
4.0672679 0.089745671 0.20155686 273
3.539829 0.37928948 0.19349483 387
3.5890403 0.47205478 0.19198062 400
3.6992109 0.52454704 0.22540349 291
3.9686031 -0.2171728 0.38072541 1686
3.9939203 -0.074660443 0.37963501 410
3.9893327 0.068999551 0.37956905 1161
3.8402605 0.26376441 0.38173008 639
3.9281659 0.23937345 0.3811155 333
3.5776849 0.3608464 0.30588028 387
3.6698444 0.36682457 0.35715109 334.16669
3.6329732 0.49340767 0.34738192 415.5
3.9810691 -0.21640542 0.51497465 1911
4.0067334 -0.074481025 0.51470119 382.5
4.0191698 0.069473766 0.49972314 547.66669
4.0674639 0.068375058 0.56262338 345
3.8952053 0.24021928 0.46833521 1683
3.9170511 0.21604195 0.53954321 482.20001
4.0925655 0.16501349 0.4715572 316.5
3.661104 0.37147668 0.46611428 351
3.8110232 0.37725759 0.51284409 870.5
3.9481125 0.38925877 0.56210756 319
3.6663775 0.50061917 0.46972191 387
3.7719371 0.50424391 0.47182721 313
3.9946041 -0.21928456 0.69772214 2141
4.070395 -0.21792021 0.65714037 745
4.0413237 -0.072289184 0.65369737 376
4.0618691 -0.077018872 0.70167029 372
4.0482054 0.066131152 0.654073 511
4.0837717 0.067389578 0.70330691 381.5
3.987673 0.20644937 0.69702983 344.5
3.9772179 0.383663 0.67264283 312.60001
4.1068459 -0.076824665 0.79934299 348.5
4.2100749 -0.036062378 0.8585431 255
3.9441504 0.14547893 0.82779402 2611
4.1453509 0.072586939 0.81930435 283
3.9717636 0.2066392 0.83207047 2070
4.0529604 0.26269051 0.84273046 353
4.0202379 0.3687579 0.81852317 975.5
4.0617175 0.44335854 0.75542599 289
4.1357832 0.46792752 0.81117916 298
4.1068897 0.14695624 0.94074869 303
4.0063133 0.25212091 0.97331691 397.5
4.0977054 0.17597279 0.93985999 376
4.1025248 0.37130082 0.97619009 256.66669
3.9641695 0.24689175 1.1442553 327.25
4.086143 0.18210158 1.1221154 257
3.9899282 0.320261 1.1074753 319
