# .PCD v0.7 - Point Cloud Data file format
VERSION 0.7
FIELDS x y z intensity
SIZE 4 4 4 4
TYPE F F F F
COUNT 1 1 1 1
WIDTH 1
HEIGHT 77
VIEWPOINT 0 0 0 1 0 0 0
POINTS 77
DATA ascii
6.0595808 -1.5263135 0.13082737 372
4.9329515 -0.67350364 0.058329284 1897
4.9807792 -0.61786962 0.053899705 309
4.971869 -0.51900101 0.053137004 316
4.7697005 -0.35117248 0.065967977 433
4.955852 -0.43465471 0.053268969 315
4.6426249 -0.25449562 0.074424088 317
4.6458058 0.27840236 0.074353397 319
4.6657801 0.33656052 0.073391199 299
4.9453058 -0.66684985 0.16458017 1945
4.9854274 -0.6363517 0.2357139 715
4.987875 -0.51733577 0.21498358 313.5
4.924931 -0.36707023 0.16087961 617
4.9782963 -0.40888688 0.23197621 641.66669
4.6396785 -0.28075671 0.17426705 323
4.6660094 -0.24483347 0.24090034 313.66669
4.8232579 -0.16985488 0.27018851 277
4.9967184 -0.029837187 0.26509684 308
5.1302648 -0.14109467 0.26188743 582
4.9930186 0.085680313 0.26531228 285
4.6912551 0.28704059 0.22322524 309
4.8622217 0.20642421 0.26941434 278
4.6473866 0.32865098 0.17435867 329
4.662641 0.32329181 0.27588981 321
5.0069199 -0.64384252 0.38490039 812
5.0362988 -0.51901329 0.3818711 315
4.9797602 -0.3969034 0.37983602 1266
4.7346077 -0.23872183 0.37854999 299
4.8473682 -0.28100622 0.37865871 271
5.1068497 -0.17411441 0.37687218 333
4.8689089 -0.13811618 0.37734467 291
4.9743681 -0.029717594 0.37667 304
4.9118724 0.10149474 0.37703824 305
4.9905047 0.067083031 0.37669384 305
4.7900958 0.29918414 0.37906504 261
4.8016171 0.2206248 0.37816632 293
5.0440135 0.19471705 0.37721068 351
4.6775393 0.31788629 0.37968284 311
5.0377874 -0.64509177 0.50016707 389
5.0562649 -0.51879215 0.49722153 312
5.0077152 -0.3973853 0.49373043 1264
4.8621664 -0.2496056 0.48851717 279
5.2369051 -0.23518488 0.49625969 438.5
4.9358096 -0.037194341 0.48863852 2353
5.0277548 -0.085150167 0.49080449 352
4.9459562 0.096477836 0.48903638 1823
4.9644017 0.071706839 0.48932928 515
5.134551 0.21666104 0.49385446 307
4.9562201 0.33109096 0.49156606 728
5.0571547 -0.64416265 0.65713412 331
5.1450782 -0.65143132 0.74214733 301
5.0656228 -0.51604009 0.67365831 289
5.0379038 -0.39239842 0.66885054 464
5.124157 -0.40884894 0.67436767 287
4.9240403 -0.25701484 0.60309452 416
5.0811868 -0.15660116 0.72675729 308
5.1987572 -0.16117164 0.61449361 355.5
5.0251608 -0.029638615 0.66409189 862.5
5.0367045 0.084964298 0.66510707 840
5.0467238 0.2122166 0.64715886 293.66669
5.1344571 0.21193008 0.73103178 297
5.1451755 -0.65744919 0.86305642 267
5.1262498 -0.52697581 0.85667354 285
5.1499867 -0.40693259 0.8555091 295
5.0987043 -0.16379669 0.84650385 295
5.1996961 -0.15214677 0.85590798 249
5.0127778 -0.037257474 0.83762103 1261
5.2099996 -0.022350559 0.85620481 265
5.0580192 0.081387982 0.84205079 571
5.1853108 0.090390846 0.85410446 303
5.116817 0.20990603 0.84873271 299
5.0790949 -0.016327215 0.96182895 281
5.2010617 -0.044006765 0.9763853 257
5.1986465 0.077914521 0.97623265 287
5.0531354 -0.029349137 1.1331878 280
4.9472179 0.095484167 1.0605171 394
5.0671487 0.067389652 1.1352654 283
