# .PCD v0.7 - Point Cloud Data file format
VERSION 0.7
FIELDS x y z intensity
SIZE 4 4 4 4
TYPE F F F F
COUNT 1 1 1 1
WIDTH 1
HEIGHT 75
VIEWPOINT 0 0 0 1 0 0 0
POINTS 75
DATA ascii
6.3426542 -1.7333815 0.12321195 313.5
4.9178257 -0.67358208 0.059444189 1871
4.9622378 -0.60561752 0.055070162 313
4.9605732 -0.52125126 0.053994149 316
4.7695351 -0.3533195 0.066000164 409
4.9477987 -0.42403087 0.05373913 333
4.6301956 -0.28806981 0.075562477 311
4.6636643 -0.22794528 0.072707295 319
4.6459365 0.27631435 0.074328005 315
4.6083446 0.34198064 0.077619612 329
4.9301596 -0.66694772 0.16535622 1951
4.9815359 -0.63006437 0.23575692 745.66669
4.9899793 -0.52103084 0.21507601 313
4.9442215 -0.41283751 0.21491161 906
4.9604988 -0.37396926 0.21376678 1052
4.6256194 -0.28149697 0.17497635 331
4.6621456 -0.24847315 0.24111359 313
4.8321681 -0.17234808 0.26996762 305
4.9250307 -0.068755113 0.26711115 256
4.9540582 -0.053691518 0.26625371 301
4.932507 0.088387921 0.26691708 276
4.6878972 0.28471738 0.22326687 313
4.8533955 0.20257695 0.26961908 282
4.6378388 0.33450717 0.22583264 326
5.0093846 -0.64038563 0.38480434 854
5.0289507 -0.52176201 0.38195857 316
4.9616661 -0.39152196 0.37980974 1860
4.710371 -0.24245782 0.37866408 277
4.8223104 -0.28117931 0.37874097 279
5.0817833 -0.17548054 0.37695599 333
4.9130659 -0.073393993 0.37699774 298
4.9897323 -0.048497301 0.37665254 299
4.9039216 0.099138118 0.37705141 295
5.002347 0.077492997 0.37669045 301
4.7681074 0.25449827 0.37864646 266
5.0620718 0.19364567 0.37714833 427
4.6628623 0.3266162 0.37985414 317
5.0422444 -0.64186537 0.50016242 417
5.0444474 -0.52106512 0.49704069 312
4.9866276 -0.39178059 0.49319705 1640
4.8648758 -0.25493619 0.48863691 295
5.2083511 -0.23587397 0.49566916 436.5
4.9347649 -0.042432953 0.48862612 2423
4.9989161 -0.080474138 0.49016175 542
4.9300079 0.093964048 0.48868889 2195
4.9792299 0.082082823 0.48967898 701
5.0558038 0.22110455 0.49224728 397
5.1107631 0.20018019 0.49319935 321
5.0767183 -0.64101076 0.65802687 305
5.1259885 -0.65117431 0.74084991 299
5.0558081 -0.51848221 0.67331445 293
5.0413313 -0.39516661 0.64931577 582.33337
5.1566629 -0.39781335 0.7356776 243
4.8708858 -0.25924543 0.60073036 186
5.0707107 -0.15648718 0.72602582 335
5.159914 -0.15829019 0.67262793 359.5
5.0213933 -0.033144794 0.66388386 775.5
5.1807213 -0.1468208 0.61356771 279
5.0346498 0.088909209 0.66478699 850
5.0459151 0.20803392 0.64702034 297.66669
5.1225772 0.20960718 0.73017788 291
5.1553769 -0.64895147 0.86366093 253
5.1181588 -0.52768135 0.85594648 267
5.1755872 -0.41134912 0.85800719 289
5.0920749 -0.15353991 0.84578013 305
5.2016129 -0.15448622 0.8561101 261
5.055572 -0.039362259 0.84166408 443
5.2069845 -0.027810415 0.85592848 275
5.1604013 0.090695709 0.85175955 298
5.1021309 0.2039032 0.8472752 305
5.0860238 -0.021664141 0.96265954 283
5.197073 -0.045783263 0.97591633 249
5.219533 0.075968906 0.97870564 285
5.046464 -0.032854293 1.1320646 280
5.0488939 0.064949326 1.1324718 280
