# .PCD v0.7 - Point Cloud Data file format
VERSION 0.7
FIELDS x y z intensity
SIZE 4 4 4 4
TYPE F F F F
COUNT 1 1 1 1
WIDTH 1
HEIGHT 58
VIEWPOINT 0 0 0 1 0 0 0
POINTS 58
DATA ascii
1.2411586 1.9398029 0.006301403 412
3.9410703 -0.2025647 0.076332085 728.20001
3.9520862 -0.074532241 0.0966148 401.33334
3.8973036 0.039060164 0.12748909 2153
3.9381108 0.019188462 0.043774694 445
3.5290675 0.2910955 0.048480958 293
3.4112325 0.34642094 0.061535224 331
3.4832714 0.33759728 0.08843562 347
3.6159499 0.4381319 0.076980561 319
3.9531159 -0.21397519 0.25100529 1050.5
3.9809506 -0.074619204 0.24908145 428.75
3.9578109 0.045773216 0.25000539 1194
3.5453355 0.29767025 0.19200602 368
3.5659032 0.37221941 0.18406378 393.80002
3.636821 0.42924389 0.22669047 431
3.6191814 0.47634149 0.19017585 346
3.9947586 -0.21504125 0.3806214 450
3.9978962 -0.074399084 0.3796283 415
4.063612 0.053204406 0.37930465 291
3.8836527 0.25994456 0.38153172 295
3.9889665 0.244407 0.38098103 269
3.5819225 0.30469435 0.30480468 405
3.6425605 0.3732231 0.35026774 366.14288
3.6606815 0.49507993 0.36045775 386.33334
3.7789738 0.53789169 0.30410999 311
4.0161963 -0.21478081 0.51605523 397
4.0313473 -0.082055718 0.50896907 373.85715
4.0640216 -0.022456167 0.56233424 375
4.017735 0.056547787 0.46929634 314
4.1113405 0.072946809 0.56463486 313
4.2134161 0.063643843 0.56922764 271
3.8836772 0.20423859 0.5116657 758.66669
3.9611416 0.2040782 0.5144428 441
3.6842124 0.32518637 0.4655008 348
3.7935321 0.39131349 0.49829563 1016.3334
3.9484012 0.40911314 0.56261051 309
3.6957433 0.49327278 0.47004688 331
4.056046 -0.21550429 0.65610754 377
4.062757 -0.063465081 0.67385197 373.39999
4.0465803 0.068751946 0.74658161 289
4.1349611 0.068726413 0.66014183 259
4.0219054 0.20888634 0.69962472 351.5
4.0027242 0.35346493 0.68594527 323
4.0569534 0.44782731 0.66159868 295
4.0834212 0.45329833 0.66357082 291
4.1071558 -0.21736458 0.75392401 322
4.1148958 -0.075477324 0.75313807 309
4.0446911 0.072564945 0.8390491 339
4.0920944 0.061136335 0.7972585 296.5
3.9883847 0.18788612 0.83371347 1527
4.0845842 0.26593572 0.84653831 303
3.9826732 0.34677729 0.83663857 2382
4.0517583 0.3489531 0.75161225 309
4.1454639 0.45611817 0.81192887 318.25
3.9783888 0.242589 0.98345423 387
4.073164 0.22151282 0.93727684 358
3.9745357 0.21321861 1.1365712 346.60001
4.0538979 0.2752471 1.2076294 253
