# .PCD v0.7 - Point Cloud Data file format
VERSION 0.7
FIELDS x y z intensity
SIZE 4 4 4 4
TYPE F F F F
COUNT 1 1 1 1
WIDTH 1
HEIGHT 79
VIEWPOINT 0 0 0 1 0 0 0
POINTS 79
DATA ascii
6.4343848 -1.8091371 0.12113607 338
4.9216475 -0.67504203 0.059188008 1861
4.9725471 -0.6115095 0.054404676 313
4.9524479 -0.52217042 0.05460003 318
4.8012877 -0.35668296 0.063722014 437
4.9553442 -0.42922261 0.053245962 327
4.6370258 -0.29061392 0.075086534 305
4.6586413 -0.22852457 0.073075235 313
4.6519608 0.27585512 0.073887169 315
4.6136684 0.33781299 0.077193081 315
4.9428878 -0.66967523 0.16476113 1943
4.9811015 -0.6333921 0.23584919 767.66669
5.0036812 -0.52440333 0.21450622 311
4.9366369 -0.37111628 0.16033876 929
4.9828367 -0.406766 0.2315955 788.33337
4.6781096 -0.25965816 0.2235551 314
4.8541121 -0.17404558 0.26939577 277
4.9780383 -0.054857239 0.2656219 277
4.9628854 0.06697882 0.26604885 293
4.6467729 0.27936 0.17389983 321
4.669313 0.28457037 0.27526444 315
4.8369532 0.17802259 0.26987696 291
4.6620979 0.33175635 0.22490141 318
4.9996157 -0.64179027 0.38488367 901
5.0327339 -0.52396894 0.38198939 318
4.9456415 -0.37914732 0.37966841 1837
4.9722471 -0.408867 0.38005149 1951
4.7442918 -0.26198238 0.37877452 286
4.9748225 -0.17246701 0.37725216 269
4.8850551 -0.13338171 0.37727088 297
4.9798303 -0.034799587 0.37666181 304
4.9249353 0.098710626 0.37698907 301
5.0034242 0.07261648 0.37667263 299
4.7583604 0.29411244 0.37910444 273
4.8078971 0.21493463 0.37809491 301
4.9782295 0.18803738 0.37735605 325
4.6482387 0.32096958 0.37982357 323
5.0512943 -0.64585447 0.50045025 438
5.0318365 -0.52142411 0.49679866 314
4.9799271 -0.39388448 0.49309886 1830
5.2047415 -0.30009779 0.49626297 592
4.8608356 -0.25557515 0.48856044 261
5.2077985 -0.17457207 0.4950223 299
4.9347568 -0.043307379 0.48862767 2559
4.9828782 -0.025573244 0.48961622 305
5.1027517 -0.14448798 0.49260205 311
4.9831562 0.085762799 0.48977759 1162
5.0788913 0.1966048 0.49249989 1713
5.2126441 0.22742212 0.49558884 269
4.8102365 0.32613468 0.4884845 241
5.0808849 -0.64492536 0.65851927 317
5.1387167 -0.65380126 0.74180228 305
5.0712681 -0.52185106 0.67404014 297
5.0493793 -0.39780742 0.61107063 344
5.1367021 -0.40311447 0.73441768 296
5.0191298 -0.21136913 0.66570985 281
5.2049742 -0.15479389 0.67522591 277
5.3288221 -0.17230909 0.62047309 259
4.9440808 -0.030491915 0.60231304 1907
5.028502 -0.035994388 0.68357146 951
5.0469246 0.086237699 0.66558802 831
5.0429926 0.20657794 0.64663744 297
5.1206622 0.20771994 0.73002303 297
5.1557508 -0.65359432 0.86387557 291
5.1268163 -0.53089356 0.8568508 285
5.1457491 -0.40975431 0.85518295 295
5.1581955 -0.15718551 0.85204458 285
5.0217042 -0.041278828 0.8384732 1605
5.2039924 -0.028705264 0.85564756 263
5.0331855 0.077884614 0.83969128 1197
5.2190485 0.096505091 0.85732061 293
5.0948448 0.21098654 0.84667915 126
5.1170893 0.20363723 0.84867972 303
5.2678585 -0.16872858 0.98517793 388
5.0870132 -0.022554342 0.96277851 281
5.197051 -0.04804818 0.97592062 257
5.2066398 0.074863069 0.97716767 299
5.0486879 -0.034298692 1.1323221 289
5.0657101 0.064305171 1.1350209 274
