# .PCD v0.7 - Point Cloud Data file format
VERSION 0.7
FIELDS x y z intensity
SIZE 4 4 4 4
TYPE F F F F
COUNT 1 1 1 1
WIDTH 1
HEIGHT 60
VIEWPOINT 0 0 0 1 0 0 0
POINTS 60
DATA ascii
4.3404403 0.64086354 0.010715425 382
3.8856122 -0.24095589 0.12927502 2145
3.944521 -0.19625428 0.063995071 426
3.9451423 -0.074616984 0.097252995 421
3.9297981 0.028708307 0.071425758 701
3.5750437 0.29075712 0.04387711 282
3.401103 0.32887203 0.062416643 336
3.451962 0.3677561 0.09173432 371
3.6727004 0.41876847 0.035109714 297
3.9646225 -0.21842183 0.25058961 969
3.9791021 -0.075056754 0.24916103 428
3.9817157 0.051671937 0.24907291 404.5
3.5546694 0.29411978 0.19136684 348
3.5449581 0.36807999 0.17425722 404.5
3.635437 0.41157281 0.2264536 369
3.595731 0.46920508 0.15325454 341
3.6216927 0.47469956 0.22833037 363
3.9955432 -0.21883219 0.38066041 438
4.006671 -0.075012311 0.37959862 410
3.9835377 0.057661854 0.37954623 192
3.8692813 0.2645455 0.38164371 307
3.9460142 0.24227165 0.38109386 293
3.5716448 0.3282609 0.30545932 433
3.6380398 0.35741782 0.35220721 369.80002
3.8084612 0.41696435 0.34315187 309
3.6628504 0.49176249 0.36033171 391
3.7579627 0.52976054 0.30450052 305
4.0202141 -0.21878558 0.51638865 395
4.0160799 -0.075044289 0.49988568 377.66669
4.0546274 -0.074193195 0.56212401 375
3.942127 0.14944418 0.46826404 1755
4.1113834 0.07060194 0.56462651 314
3.8775461 0.18998727 0.5258078 329.66669
3.9350195 0.22962072 0.51398289 873.5
3.6987906 0.35556751 0.46650964 341
3.7506657 0.41325885 0.46885139 335
3.9219031 0.39039308 0.56097382 558.5
3.7337661 0.49577036 0.47084379 309
3.8093953 0.52441055 0.47316474 299
4.056324 -0.21931159 0.65618527 372
4.0488615 -0.11983044 0.65447265 377
4.0592899 -0.075971775 0.6781894 343.75
4.0042911 0.066924974 0.65101111 258
4.1059742 0.071587265 0.6581322 245
4.0200052 0.20850775 0.69955349 356.5
4.0133677 0.34912544 0.6558367 328
4.0737448 0.4543862 0.66294765 302
4.117866 -0.22180775 0.75500441 320
4.1138773 -0.05912184 0.75295293 346
3.9933062 0.1134441 0.83332705 1927
4.1162968 0.066576749 0.78475368 282.33334
3.9483612 0.16313401 0.82853103 2797
4.076107 0.25900844 0.84538615 308
4.0060225 0.34398055 0.80836004 1702.3334
4.0800571 0.40306118 0.75588572 298
4.171701 0.45125249 0.86226952 299
4.2034526 0.47358921 0.76955926 293
3.977941 0.2539863 0.98365271 401
4.0680118 0.19752878 0.96664518 388.66669
3.9720645 0.22354721 1.1451229 312.83334
