# .PCD v0.7 - Point Cloud Data file format
VERSION 0.7
FIELDS x y z intensity
SIZE 4 4 4 4
TYPE F F F F
COUNT 1 1 1 1
WIDTH 1
HEIGHT 59
VIEWPOINT 0 0 0 1 0 0 0
POINTS 59
DATA ascii
4.4083138 0.688205 0.035972249 413.33334
3.9475436 -0.202475 0.097501509 407
3.9655147 -0.096010208 0.081987143 398
3.8922749 0.042789776 0.12785813 1895
3.9571235 0.015776291 0.069056533 399.66669
3.366765 0.34113261 0.065977454 350
3.5422809 0.38788664 0.060218018 289
3.6304545 0.30608529 0.14845166 283
3.5863187 0.47178435 0.080251634 343
3.9430389 -0.21081966 0.25135994 1103
3.975426 -0.070547253 0.24924599 427.25
3.9471035 0.070949025 0.2503249 1160.5
3.5478392 0.38234502 0.19313854 399
3.6596744 0.31130806 0.2236934 301
3.5998712 0.4756037 0.15305817 385
3.600122 0.47743878 0.22948807 405
3.7757599 0.54599237 0.22194225 340
3.9589705 -0.21033481 0.38068241 1300
3.9977403 -0.070468202 0.37961075 411
3.9867728 0.071183838 0.37958777 1213.5
3.8125701 0.25851965 0.38174939 767
3.946619 0.24823059 0.38116789 299
4.0574665 0.18511029 0.38011622 388
3.5886693 0.36178005 0.30559197 397
3.6544418 0.3590275 0.351796 345.80002
3.7931833 0.44357502 0.3853265 283
3.6461699 0.50149775 0.34727427 391.5
3.9869118 -0.21045569 0.51513839 1180
4.0227842 -0.070485689 0.51522744 377.75
4.006628 0.062194526 0.51466525 1034
4.1067014 0.081999764 0.51816797 251
3.9388371 0.21512598 0.51987994 696.42859
3.7084947 0.36211222 0.46684986 329.66669
3.8286514 0.40524107 0.53589004 867.5
3.9456084 0.34800375 0.56091738 325
3.6818283 0.51221776 0.47038162 381
3.8091061 0.5126425 0.47279 307
4.0315027 -0.21166402 0.70040965 1026
4.0516348 -0.21402693 0.65577883 569
4.0422821 -0.072308913 0.65377462 371
4.0666704 -0.072732925 0.70193535 377
4.1059575 0.072399169 0.65813541 343.5
3.9954224 0.21121892 0.69760829 338.5
3.9771743 0.38239801 0.68498105 314.33334
4.1463633 -0.21854618 0.80569625 296
4.1614189 -0.060843781 0.82151407 277
4.0356789 0.076201469 0.83800101 384
4.1374459 0.070511058 0.78701949 263
3.971374 0.18986009 0.83173144 2161.6667
4.0642939 0.27118978 0.84426057 317
4.0030317 0.39637777 0.81747001 945.5
4.1337519 0.464064 0.81085527 295
4.0184684 0.25509238 0.97525102 394
4.1549225 0.17041245 0.94795746 279
4.1079063 0.37644893 0.9774133 330
3.9820788 0.25024608 1.147954 343.75
4.0653868 0.18421344 1.1181931 265
3.9808507 0.32252833 1.1058297 309
4.0256205 0.32075298 1.2031212 299
