# .PCD v0.7 - Point Cloud Data file format
VERSION 0.7
FIELDS x y z intensity
SIZE 4 4 4 4
TYPE F F F F
COUNT 1 1 1 1
WIDTH 1
HEIGHT 82
VIEWPOINT 0 0 0 1 0 0 0
POINTS 82
DATA ascii
6.6245918 -1.9373132 0.11581725 220
4.9085841 -0.66772574 0.060023725 1945
4.9666119 -0.61073774 0.054828286 309
4.9653149 -0.51919103 0.05362013 320
4.753973 -0.34754604 0.067078292 453
4.9712372 -0.43067852 0.052103698 321
4.668478 -0.256823 0.072562575 304
4.6496539 0.28076902 0.07409209 315
4.587831 0.3355661 0.079051614 325
4.948585 -0.6650508 0.16437626 1855
4.9978685 -0.63373125 0.23513906 629
5.0004349 -0.51962185 0.21458355 313
4.8922634 -0.36203656 0.16245991 459
4.9776878 -0.40437788 0.23196554 568.33337
4.6743503 -0.25549462 0.22364926 313.5
4.8363395 -0.16776221 0.26982838 295
4.9860744 -0.051381424 0.26540291 297
4.9738808 0.067135744 0.26575845 295
4.6756659 0.28814495 0.22390997 312
4.8507671 0.18291557 0.26954234 293
4.6423354 0.32678738 0.27647895 317
4.6519923 0.33402133 0.17418617 307
5.0089011 -0.64035833 0.38480255 690
5.0391726 -0.52028358 0.38188702 318
4.9460855 -0.37362686 0.37958211 1531
4.9692583 -0.40860713 0.38005775 1947
4.691535 -0.23892395 0.37868613 311
4.8783631 -0.28203791 0.37857175 279
5.0639739 -0.1698692 0.37697011 303
4.8750596 -0.13309282 0.37729841 287
4.9898562 -0.030796371 0.37662831 308
4.9248161 0.10417245 0.37701231 299
5.0064235 0.072662495 0.37666416 305
4.7450538 0.2983284 0.37920099 255
4.8147259 0.21868937 0.37810826 291
5.0749688 0.19644301 0.37713134 351
4.6761804 0.32279301 0.3797555 313
5.0526528 -0.64331877 0.50040168 337
5.0506964 -0.51910406 0.49711889 318
5.0025654 -0.39303768 0.49354643 1276
4.8051233 -0.24906291 0.48732358 253
5.2354794 -0.23333943 0.49621356 430.5
4.922791 -0.039707288 0.48836803 2479
4.9858627 -0.081129186 0.48989797 292
5.0015922 0.088847749 0.49018016 409
4.8719211 0.21520258 0.48834473 251
5.0906906 0.20161818 0.49279177 369
4.7554064 0.32197303 0.48729169 261
5.0702438 -0.64166623 0.65789652 313
5.1572495 -0.65074921 0.74294466 295
5.0626335 -0.51734769 0.65364921 294.33334
5.1208529 -0.52074379 0.73631251 299
4.9973278 -0.38488141 0.60849214 1271
5.1322246 -0.40252826 0.69439143 299
5.0138388 -0.20648396 0.66534865 347
5.1948957 -0.15693665 0.61428595 346.5
5.294168 -0.16002297 0.74163443 444
4.9491038 -0.025948845 0.60253459 2425
5.0175462 -0.032006454 0.68299383 903
5.0438704 0.088945605 0.66555315 980
5.0157514 0.20602688 0.66449481 297
5.140677 0.21695414 0.67166984 303
5.1488442 -0.65267038 0.86320585 303
5.1134825 -0.52468508 0.85541797 293
5.1353145 -0.40322256 0.85404885 305
5.0730152 -0.15759459 0.84402293 313
5.2196822 -0.15002252 0.85777241 261
4.9978499 -0.03648252 0.83621073 2219
5.2060037 -0.025068678 0.85583162 265
5.0171638 0.083108857 0.83820599 2211
5.2200441 0.096519366 0.85741454 287
5.0801325 0.20564607 0.84522676 305
5.2231994 -0.16722088 0.97985959 273
5.0900078 -0.019023158 0.9631297 281
5.1980891 -0.043292928 0.97602999 277
5.1896696 0.080268547 0.97517771 291
5.1701469 0.20304748 0.97399503 354
5.0561457 -0.0246701 1.1531076 281
5.1152701 -0.047691364 1.0843394 261
5.0361609 0.066563927 1.1882265 273
5.1060328 0.073197864 1.0831268 255
5.0969691 0.061826959 1.3139971 428
