# .PCD v0.7 - Point Cloud Data file format
VERSION 0.7
FIELDS x y z intensity
SIZE 4 4 4 4
TYPE F F F F
COUNT 1 1 1 1
WIDTH 1
HEIGHT 50
VIEWPOINT 0 0 0 1 0 0 0
POINTS 50
DATA ascii
3.358129 0.68590307 0.072084755 320.33334
2.8079886 0.063789867 0.072248712 266.5
2.304317 0.27351713 0.093693323 468.5
2.4267111 0.28821757 0.14191034 352
2.3123074 0.32963085 0.073467895 399.5
2.4974568 0.39785984 0.081459321 420.39999
2.5992625 0.44076809 0.028525561 349
2.7323306 0.47141713 0.0079132318 589
2.8436506 0.056679849 0.20379993 240
2.3972011 0.2957561 0.23850036 359
2.4927847 0.28024527 0.23123735 323
2.4721115 0.35636884 0.2343716 436.27274
2.7303278 0.31439704 0.15973414 617
2.6687596 0.46242979 0.16791931 659
2.8157372 0.10525836 0.44427404 366
2.885206 0.10886236 0.38301513 320
2.6566782 0.25625068 0.39427105 378.14288
2.7596216 0.19459048 0.39942399 351.375
2.4993837 0.36156303 0.38545978 471.33334
2.5537584 0.32228857 0.4431628 461
2.8310049 0.31409663 0.32552084 569
2.6049306 0.46234229 0.44916078 319
2.8084195 0.091924466 0.54322201 339.39999
2.8946345 0.040247373 0.54138333 309
2.6662929 0.26183516 0.50232619 392.33334
2.7515838 0.2064037 0.53553575 441
2.8857217 0.20518376 0.57493079 368
2.5305882 0.35753602 0.49951929 449
2.5872636 0.32810479 0.50083947 319
2.7899735 0.39082432 0.54239082 351
2.8596141 0.36883599 0.57802892 348.33334
2.9289601 0.45074371 0.58590043 287
2.8313797 0.034664337 0.63178754 433
2.8891749 0.079287723 0.67437714 422.42859
2.8839297 0.22271252 0.67178077 494.80002
2.8927343 0.38623133 0.67861801 428.20001
2.8277853 0.11283035 0.81920934 2375
2.9130566 0.078085087 0.78187841 397.39999
2.8240271 0.19543147 0.82047516 2490
2.8826053 0.22373901 0.80297452 859.22223
2.9040074 0.37862465 0.80566698 859.88892
2.9716377 0.10820276 0.90795052 363.5
2.9257936 0.25254637 0.956415 371.42859
3.0054724 0.18873343 0.91615075 315
2.8431582 0.3539556 0.98328793 370
2.897815 0.36035314 0.9642992 344.77777
2.8995607 0.26386666 1.1002154 338.33334
2.8135788 0.37724528 1.0769049 385.20001
2.889024 0.36495125 1.1271443 343.5
2.9643526 0.47816721 1.1116093 289
