# .PCD v0.7 - Point Cloud Data file format
VERSION 0.7
FIELDS x y z intensity
SIZE 4 4 4 4
TYPE F F F F
COUNT 1 1 1 1
WIDTH 1
HEIGHT 97
VIEWPOINT 0 0 0 1 0 0 0
POINTS 97
DATA ascii
3.3348908 0.74391049 0.042193145 327
3.2339454 -0.32912433 0.080210797 351.5
3.2487309 -0.22243884 0.082384624 337.85715
3.2647338 -0.090003498 0.070902035 335.57144
2.7867057 0.07767415 0.048155934 226
2.8634472 0.073426723 0.14530602 238
3.2603064 0.050317906 0.075970471 356
2.6659107 0.27130309 0.052874982 362.5
2.7711756 0.27395824 0.050017536 311
2.9260879 0.28667063 0.08383438 525
3.2829838 0.20242143 0.07407479 348.33334
3.3023472 0.25765035 0.072394788 337
2.6144288 0.32563883 0.072149761 404
3.1095901 0.30191344 0.12354237 435
2.6480699 0.52161044 0.079505444 429
2.759409 0.49301249 0.04425738 350.20001
2.9132345 0.49430594 0.087661684 408
3.2290277 -0.32582068 0.21178463 365
3.2456841 -0.21117193 0.20944431 347.25
3.2544434 -0.065860502 0.21287702 370.14288
2.8602879 0.070050538 0.2026346 144
3.2608202 0.062890396 0.20088415 374.60001
2.6002548 0.27820241 0.23670056 417
3.283253 0.21400152 0.20718096 364.25
2.5361006 0.32576895 0.28079182 475
2.5850179 0.34107155 0.22588815 421.00003
2.8978422 0.4467206 0.20433992 539
3.2880998 0.31359565 0.20793886 351
2.6266015 0.53353769 0.23230548 422.80002
2.7632904 0.48745787 0.21713954 471
3.0251956 0.5386942 0.19686428 489
2.9229257 0.66474807 0.20786101 543
3.2286804 -0.32284755 0.34980673 355.5
3.2572262 -0.2100267 0.34766567 330
3.2580712 -0.060781121 0.3414351 346.42859
3.3018334 -0.030582365 0.38142484 311
2.7869453 0.11234784 0.413495 358
3.2357116 0.07586135 0.34648472 312.25
2.5321128 0.28502035 0.38700452 365
2.644381 0.24852556 0.39176071 401.36365
2.747601 0.18660408 0.38395399 435
3.2735918 0.22477348 0.31201988 379
2.5282514 0.33454305 0.36137018 487
2.5601766 0.39120883 0.33501646 493
2.7361245 0.39581811 0.41920802 350.5
2.6173515 0.5121057 0.36264005 426.11111
3.1218386 0.51071036 0.3222107 439
2.8218751 0.66246516 0.33669835 593
3.248642 -0.3219994 0.49319088 331
3.2714086 -0.20917812 0.49176228 315.25
3.2909427 -0.056972533 0.49071532 313.5
2.8033772 0.11177874 0.52623981 1603
2.8889847 0.11653745 0.57363749 337
3.0886378 0.052339897 0.58701974 194
3.2512863 0.057474148 0.51119035 271.39999
2.7860618 0.22590867 0.53200501 1089.4
2.8014011 0.37252069 0.51203799 383
2.8705678 0.37936953 0.54048127 418.60001
2.786299 0.50866634 0.45419854 305
2.9414818 0.46025896 0.58715677 301
3.0069039 0.46826759 0.59183699 311
3.2417336 -0.34201905 0.63969243 320.66669
3.3246193 -0.40834635 0.68626052 293
3.2677979 -0.21403669 0.66046745 315.80002
3.2812514 -0.064821184 0.66523755 316
3.3079772 -0.020541713 0.63949043 310
2.7766862 0.10835867 0.65809095 544
2.8879125 0.083971955 0.66933686 319.5
3.075808 0.048226081 0.72375429 269
3.3219125 0.05610786 0.67816204 303
2.7919612 0.20382103 0.65120924 433.66669
2.8919108 0.21917078 0.70474809 472
2.813097 0.3024168 0.65636289 435
2.915837 0.3914091 0.68586409 409.00003
2.9365888 0.46060133 0.68675584 350
3.2646959 -0.35495612 0.77739781 310.66669
3.3049712 -0.36023182 0.83239973 295
3.2919674 -0.17858455 0.78792179 312
3.3110423 -0.20277163 0.80953687 299
3.2806623 -0.067413457 0.85800946 264.5
3.3167164 -0.047033247 0.7970953 310.20001
2.8978717 0.1023102 0.79261535 447
3.2219627 0.045489475 0.84907055 286.5
2.8258753 0.22698353 0.82172179 3213
2.9044616 0.20669279 0.81999081 747.22223
2.929137 0.36549625 0.81262207 797.20001
2.9696691 0.4674626 0.79078251 457
2.9572592 0.099965207 0.90506208 341
3.0372758 0.13531826 0.92095673 295
2.9253266 0.25529525 0.9650684 356.42859
2.9247527 0.34381947 0.97969389 378.16669
3.024267 0.33713052 0.92537999 307
2.8389919 0.26658478 1.0933678 462
2.90042 0.24534665 1.1254724 342
3.063839 0.22554138 1.0795603 279
2.8131902 0.31660411 1.1172152 363
2.9122868 0.35273242 1.1033838 320
