# .PCD v0.7 - Point Cloud Data file format
VERSION 0.7
FIELDS x y z intensity
SIZE 4 4 4 4
TYPE F F F F
COUNT 1 1 1 1
WIDTH 1
HEIGHT 92
VIEWPOINT 0 0 0 1 0 0 0
POINTS 92
DATA ascii
4.7903013 -1.9196318 0.10991251 208
3.1283541 -0.65479171 0.065947801 2157
3.1741972 -0.610991 0.090624824 501
3.1453497 -0.5096485 0.00072109699 521
3.1790473 -0.51920938 0.088514946 513.5
2.79476 -0.31156954 0.069304131 539
2.8676112 -0.33398655 0.091059685 465
3.0567551 -0.36011156 0.12923342 1719
3.1738405 -0.42865118 0.087679371 524
2.8239264 -0.25536904 0.085403755 513.79999
2.8634405 -0.24110967 0.146303 579
2.8359025 0.29289147 0.0412938 571
2.8743408 0.28607675 0.10137474 500.60001
2.8237302 0.36470464 0.08173912 520.42859
2.8572559 0.36478037 0.14830175 551
3.1396885 -0.64494687 0.19091511 2223
3.1929269 -0.62787437 0.23180699 917.66669
3.1976364 -0.51813906 0.21746957 495.5
2.8326745 -0.30274856 0.20666382 559
2.8534987 -0.3008689 0.26419103 557
3.1475859 -0.37363705 0.18463367 2249
3.1873338 -0.40704116 0.22681832 1094.3334
2.849664 -0.27174959 0.26392466 553
2.8897223 -0.23221913 0.22569184 482.20001
3.122231 0.038169794 0.24837765 627
2.9197211 0.27097645 0.23022534 480
3.0553493 0.25127098 0.25328428 394
2.8391902 0.32769138 0.2653825 555
2.8756111 0.33681658 0.22807598 495.80002
3.2273302 -0.63677025 0.3588931 640.5
3.232368 -0.51949042 0.35493472 501.75
3.203311 -0.39859581 0.35189822 1487.5
2.9007823 -0.25374457 0.3727214 492.80002
3.0280359 -0.16276538 0.38357285 355.5
3.1097572 -0.061161648 0.35979217 330
3.1065526 0.080271691 0.37258509 338.71429
2.9393661 0.25482097 0.37228507 487.39999
3.0429831 0.19135967 0.3835088 380.5
2.8816895 0.31754994 0.37429923 572.60004
3.0351779 0.39439508 0.32159477 301
3.2535188 -0.63630879 0.50464219 511
3.2364125 -0.51522392 0.49876392 460.5
3.2089584 -0.39551157 0.49397168 1960.5
3.2392392 -0.17316732 0.5624249 341
3.328794 -0.17928037 0.49285254 484
3.1329215 -0.061978217 0.49261829 882.20001
3.22247 -0.054727774 0.54532909 853.57147
3.1125174 0.12463459 0.47355145 408.33334
3.2252395 0.077335618 0.53655273 883.66669
3.1449454 0.27329797 0.52371132 253
3.2203202 0.20169884 0.52536678 326
3.2779603 -0.63525331 0.65571237 479.5
3.2004173 -0.50393993 0.64297062 372.5
3.2446711 -0.39643264 0.64191824 782
3.2685454 -0.17403218 0.63755989 389
3.3125322 -0.17163393 0.67854804 423
3.2539239 -0.058296353 0.70835471 852.25
3.2667406 0.083087794 0.69143313 855.75
3.3177226 0.13079609 0.6036433 415
3.2771726 0.2052214 0.65124583 421
3.2936695 -0.64176667 0.80885339 438
3.3003702 -0.62742561 0.77094388 397
3.2471108 -0.50189048 0.77248192 348.60001
3.3579652 -0.52520877 0.84800363 349.5
3.2912912 -0.39437437 0.75746453 415
3.3527255 -0.41399246 0.80356866 288
3.2952476 -0.17878775 0.75140655 409
3.3312883 -0.17199044 0.80537951 405.66669
3.2460966 -0.067153335 0.816769 2568
3.3647199 -0.050029803 0.83365417 344
3.2559471 0.093844652 0.79381573 2015.6667
3.3445616 0.10348848 0.8312217 358
3.2958584 0.20029065 0.75191009 441
3.3170972 0.20492458 0.791587 408
3.4838893 0.22653213 0.85327429 265
3.3759551 -0.49931431 0.9249844 285
3.3383594 -0.18633637 0.90588462 367
3.2646568 -0.0026689554 0.9982453 311
3.3567433 -0.046879616 0.95119601 333.80002
3.5225694 -0.10384085 0.97417843 396
3.2565973 0.032138564 1.0320504 333
3.3684745 0.075526439 0.94652885 331.66669
3.3181612 0.19309895 0.90267372 417
3.2641218 -0.057659559 1.1364484 315
3.3740587 -0.077779748 1.0576413 233
3.2408197 0.027669162 1.1233548 318.60001
3.3604088 0.076174155 1.0546919 265
3.1934855 -0.048992086 1.2147882 343
3.4297063 -0.056098897 1.3472426 428
3.1986473 0.021680538 1.2160777 405
3.3067095 0.019144557 1.3097596 277
3.4623654 0.084839836 1.2216277 436
