# .PCD v0.7 - Point Cloud Data file format
VERSION 0.7
FIELDS x y z intensity
SIZE 4 4 4 4
TYPE F F F F
COUNT 1 1 1 1
WIDTH 1
HEIGHT 92
VIEWPOINT 0 0 0 1 0 0 0
POINTS 92
DATA ascii
4.7807679 -1.9191275 0.11067057 248
3.1369982 -0.66396207 0.03386274 1581
3.1772227 -0.62701499 0.10105615 1083
3.1791637 -0.51935029 0.08854492 508.75
2.8003068 -0.31705528 0.063757777 503.66669
2.9738221 -0.34938633 0.078853786 677
3.1315763 -0.37161538 0.12225533 2183
3.1908979 -0.42889255 0.085949033 521
2.8328156 -0.25064731 0.059178293 511.66669
2.8566041 -0.25770643 0.12864915 524.33337
2.8498776 0.29274291 0.039383411 571
2.8749614 0.28369093 0.090218574 524
2.8283577 0.36368522 0.078642353 531.66669
2.8775687 0.35615629 0.11827423 492
3.1862781 -0.63426739 0.22108394 1360.5
3.2089393 -0.52019548 0.21680906 491.25
2.8322115 -0.30830461 0.17851293 536
2.8907952 -0.30874556 0.26243374 535
3.1878181 -0.39993763 0.21565554 1387
2.8895802 -0.23861471 0.23167244 493
3.2844381 -0.19526404 0.20680207 289
2.9036131 0.27160069 0.23135239 469
2.8317642 0.33759049 0.15036988 517
2.8783233 0.33730507 0.23378083 493
3.2264571 -0.63719606 0.35893101 1070
3.2373891 -0.52056199 0.35481617 506.25
2.8786418 -0.30291626 0.32398418 545
3.2008708 -0.39805377 0.35195279 1424
2.914978 -0.24910112 0.37816355 465.66666
3.0310454 -0.16559008 0.36154336 354.33334
3.1695895 -0.16013977 0.31410348 273
3.107513 -0.053570107 0.35357255 475.57144
3.2757549 -0.084981285 0.3107599 305
3.0916207 0.084024362 0.37283882 497.28574
3.1627119 0.040191211 0.31359348 313
2.9377511 0.2547884 0.37239763 477
3.0562179 0.19453496 0.35016328 376
2.8756649 0.317321 0.37417448 582.20001
3.2580156 -0.63791013 0.5050143 545.5
3.2345371 -0.51508951 0.49878776 478.25
3.213203 -0.39585939 0.49405634 2220.5
3.1097383 -0.16182818 0.45101172 299
3.2387605 -0.17220256 0.57452142 360.33334
3.3412199 -0.18060008 0.49369645 665
3.1316452 -0.093943715 0.48570994 372
3.2045822 -0.045930438 0.52398902 978.11115
3.1102419 0.12314975 0.47378001 419
3.2189364 0.065089412 0.53651369 806.66669
3.0383022 0.19767216 0.45003033 349
3.2543907 0.20538232 0.5514369 330.33334
3.3488815 0.24417095 0.45720851 504.5
3.2829494 -0.63696396 0.6561144 480.5
3.2007985 -0.50405622 0.64278638 372.75
3.26052 -0.3983326 0.64303112 426.5
3.2791803 -0.17911704 0.67554444 373
3.3027365 -0.16855185 0.67757744 409
3.2520823 -0.06265381 0.69588751 907.22223
3.2632062 0.085524827 0.70431536 926.42859
3.3096457 0.13089059 0.6528399 376.33334
3.2720959 0.20402369 0.63862997 408
3.3139231 0.2121076 0.67942768 405
3.2821257 -0.6320498 0.7692017 438
3.3809991 -0.64942372 0.85906923 311
3.2485509 -0.50306779 0.77251911 322.60001
3.3397355 -0.52029586 0.84519625 303
3.4917657 -0.57724237 0.86945933 297
3.2945399 -0.39254287 0.75776631 421
3.3416348 -0.40732354 0.81439459 310.33334
3.3284209 -0.17472851 0.7926597 417.5
3.260427 -0.067146987 0.81883013 2278
3.3375258 -0.050345358 0.82974815 421
3.2344339 0.078533426 0.8151921 2549
3.3326533 0.10339329 0.82952547 373
3.2999437 0.19874726 0.75236034 439
3.3449638 0.2110666 0.80830425 385
3.6146874 -0.54206717 0.96636564 536
3.391273 -0.19341192 0.91486937 307
3.259254 -0.0061584627 0.9971903 324
3.3555245 -0.055847246 0.9590475 350.57144
3.2311578 0.033734318 1.0265903 343
3.3483827 0.067410402 0.94958591 310.20001
3.5011866 0.11505381 1.0092407 441
3.3438692 0.19291218 0.90695482 385
3.4775865 0.15173779 0.92842418 307
3.2597809 -0.038508818 1.1351873 318
3.3258038 -0.070991255 1.1174525 285
3.2099009 0.019777477 1.1333659 337
3.3568645 0.078871787 1.1595604 262
3.2079608 -0.046881959 1.2188528 367
3.3774779 -0.058733765 1.2994026 325
3.1977179 0.014214081 1.2157997 387
3.3066964 0.02102733 1.3097621 267
