# .PCD v0.7 - Point Cloud Data file format
VERSION 0.7
FIELDS x y z intensity
SIZE 4 4 4 4
TYPE F F F F
COUNT 1 1 1 1
WIDTH 1
HEIGHT 75
VIEWPOINT 0 0 0 1 0 0 0
POINTS 75
DATA ascii
6.0518517 -1.5360883 0.13160706 388
4.9142561 -0.67035109 0.059651256 1939
4.9869461 -0.61684763 0.053431094 311
4.9658728 -0.52306926 0.053633243 319
4.7379308 -0.34801835 0.068249583 475
4.9570088 -0.43295777 0.053165853 317
4.6322927 -0.28655952 0.075398207 309
4.6774011 -0.23269546 0.071740627 319
4.6477442 0.27936459 0.074220121 325
4.6378078 0.33609578 0.075421393 305
4.9414124 -0.66584188 0.16475874 1825
4.9935284 -0.63605374 0.23532671 601.66669
4.9995074 -0.52334487 0.21464476 314.5
4.8433361 -0.35995314 0.16488814 387
5.0006523 -0.40940058 0.23108447 417
4.6476521 -0.28126901 0.17387336 321
4.6746721 -0.25128347 0.24056393 315
4.859252 -0.17034282 0.26923609 289
4.8395381 -0.13092433 0.26954234 396
4.9706717 -0.034722719 0.26579458 296
4.8891397 0.10759835 0.2681275 412
4.9639339 0.063440859 0.26601291 295
4.6946902 0.28810543 0.22308671 312
4.8709426 0.20203988 0.26914629 275
4.6472626 0.33031461 0.17438281 315
4.6734858 0.32576504 0.27562869 325
5.0070648 -0.64275813 0.3848722 646
5.0287986 -0.52305758 0.38198817 314
4.9639254 -0.39430082 0.37984946 1106
4.7051597 -0.24616909 0.37871939 291
5.0434933 -0.23132493 0.37759921 447
4.883954 -0.1368286 0.37729335 295
4.9803181 -0.034669705 0.37666273 300
4.9158521 0.10245713 0.37703079 305
4.9924788 0.068890229 0.37669325 299
4.74965 0.25262511 0.37869057 265
5.0450125 0.1947578 0.37720805 351
4.6824064 0.31990784 0.37969446 315
5.0389314 -0.644086 0.50016004 337
5.0338702 -0.5211556 0.49683434 309
5.0073242 -0.39608961 0.49369875 902
4.8915968 -0.26055866 0.48926049 289
5.202949 -0.17023966 0.49488765 285
4.9247251 -0.046699852 0.48842299 2451
5.0127859 -0.084196277 0.49048218 379
4.9499359 0.097437598 0.4891246 1761
4.974371 0.073623233 0.48954612 397
5.1173058 0.21085981 0.49343598 359
5.0810757 -0.64600492 0.65859419 317.66669
5.1510715 -0.65177107 0.7425639 301
5.0596709 -0.51988244 0.65365046 288.33334
5.1250715 -0.52803546 0.73681051 295
5.0694408 -0.39826819 0.65114391 397.66669
5.1589646 -0.40622494 0.73602116 309
4.9414625 -0.26738247 0.60402006 412
5.0787892 -0.1536223 0.72656441 421
5.1737199 -0.15926245 0.65289003 329.33334
5.023376 -0.0344944 0.66404378 809
5.0426865 0.086396098 0.66516531 791
5.056335 0.20609312 0.64746231 296.33334
5.1195078 0.2112788 0.72998381 299
5.1750188 -0.65962857 0.86587965 267
5.0926018 -0.52332449 0.85344005 259
5.1698852 -0.40791076 0.85739058 295
5.1606874 -0.15699375 0.85227883 284
5.0824661 -0.037804917 0.84419817 701
5.2009835 -0.032332361 0.85537016 271
5.0739303 0.082546346 0.84355754 373
5.2002072 0.092487358 0.85552102 303
5.1331563 0.20071176 0.85015619 295
5.0720997 -0.026016574 0.96101087 281
5.1772304 -0.043794088 0.97355145 247
5.2433114 0.079535306 0.9815498 295
5.0513959 -0.034102686 1.1329013 279.5
5.0479407 0.078412428 1.1132786 326
