# .PCD v0.7 - Point Cloud Data file format
VERSION 0.7
FIELDS x y z intensity
SIZE 4 4 4 4
TYPE F F F F
COUNT 1 1 1 1
WIDTH 1
HEIGHT 56
VIEWPOINT 0 0 0 1 0 0 0
POINTS 56
DATA ascii
3.1263273 0.45596221 0.062259793 378
2.668328 0.26731759 0.064694539 356.60001
2.7155738 0.26261115 0.057543308 341
2.6108303 0.3203069 0.072726548 398.66669
2.6538167 0.52041447 0.068895355 426.33334
2.7587717 0.47660571 0.05411407 370
3.0707533 0.066992611 0.25101256 224
2.5808172 0.27993825 0.23551702 417
2.7259688 0.25589153 0.15948631 333
2.5397375 0.32145253 0.2805185 507
2.5724754 0.34199712 0.22702627 425
2.6321163 0.51088828 0.23482136 427.83334
2.7971051 0.10715263 0.39542583 352.80002
3.0516167 0.05622483 0.39945 317.5
2.5336552 0.27359641 0.35993475 419
2.6533852 0.23774454 0.4018237 402.27274
2.7573423 0.18447912 0.36952356 449.5
2.5217428 0.33064777 0.36136547 460.5
2.6275458 0.40836623 0.36258262 411
2.743063 0.37986702 0.42855626 361
2.6137452 0.5067358 0.35848543 439.5
2.9523938 0.53898108 0.36004347 525
2.8174472 0.1098631 0.52706701 1771.6667
2.866297 0.1102154 0.57198495 335
3.0499716 0.050775919 0.55013973 378.75
2.6957357 0.29262266 0.50442839 433
2.7846611 0.20421027 0.53746635 1302.5
2.8010013 0.37217659 0.49096236 586.33337
2.8740807 0.34960741 0.56540966 580.60004
2.8049917 0.5070101 0.45444337 303
2.9943967 0.46301323 0.52343464 346
2.8261268 0.10726154 0.65272355 360.33334
2.9140773 0.065887585 0.68847144 319.5
3.0920644 0.046798069 0.65643358 279
2.7997782 0.21492395 0.65829939 468.71429
2.9045138 0.21716395 0.70618701 548
2.8405595 0.30552804 0.63790894 492
2.9293356 0.36566374 0.69815135 446.5
3.0018394 0.39464694 0.65614855 295
2.9556694 0.45535356 0.6884222 315
2.8958285 0.099732801 0.79218674 703
3.0622299 0.051652465 0.82431829 288
2.898876 0.20939383 0.80144083 1112.5
2.9437001 0.36543128 0.81479788 775
3.051537 0.47613674 0.80261189 317
2.9376762 0.098026454 0.90129077 373
3.0954323 0.1325168 0.93200696 370
2.9309759 0.2449172 0.95340604 340.39999
3.0372186 0.21653019 0.98845196 281.5
2.9099681 0.33677909 0.96535647 360.33334
3.0261509 0.33788231 0.92577153 387
2.88539 0.23996444 1.1006417 361.28574
3.0697033 0.2057617 1.0595667 273
2.9201233 0.33674118 1.1189458 332.75
3.0098031 0.36230379 1.0527052 305
2.9501421 0.27504683 1.2091725 307
