# .PCD v0.7 - Point Cloud Data file format
VERSION 0.7
FIELDS x y z intensity
SIZE 4 4 4 4
TYPE F F F F
COUNT 1 1 1 1
WIDTH 1
HEIGHT 60
VIEWPOINT 0 0 0 1 0 0 0
POINTS 60
DATA ascii
4.4299688 0.69764388 0.049954101 313.5
3.9519081 -0.20509338 0.075360298 433.80002
3.9498091 -0.072997518 0.09676981 418.33334
3.8846786 0.043189764 0.048835099 2137
3.9378953 0.025390388 0.084166303 1277
3.5615139 0.38681 0.081555657 409.66669
3.6654086 0.37701365 0.072789073 263
3.5561938 0.4643093 0.083021343 385
3.9527586 -0.21588179 0.25091022 1264
3.9837401 -0.073545009 0.24894547 430.25
3.9480627 0.063758343 0.2645424 1440.6667
3.5497022 0.37343186 0.18530715 384.60001
3.6400986 0.36626428 0.22554742 316
3.5766118 0.46908152 0.15465903 381
3.6589658 0.50284731 0.22701125 349
3.9756889 -0.21579051 0.38068891 1286
4.0089402 -0.073561713 0.3795886 399
4.0068116 0.070338525 0.37952349 470.5
3.9240265 0.25560778 0.38134551 329
3.587116 0.3296659 0.34452388 396
3.681752 0.38073498 0.34395808 339.33334
3.6393681 0.4962545 0.34727812 397.5
4.0058613 -0.2159847 0.51595199 1038
4.016283 -0.079353273 0.50854158 377.28574
4.0529747 -0.03070171 0.56184649 379
4.0305929 0.065195315 0.46959811 325
4.0898724 0.074508265 0.51728261 262
4.2202539 0.072600558 0.56957543 297
3.8856907 0.22860779 0.51205659 710.5
3.9628625 0.18423168 0.51398718 810.75
3.6893404 0.37530458 0.46676651 356
3.8501291 0.38290384 0.51401854 940
3.9339418 0.39043134 0.56150836 320
3.6598516 0.50372344 0.46969771 353
4.028275 0.5407986 0.47780591 381
4.0979748 0.55257261 0.57346183 319
4.0296326 -0.21685933 0.68498814 949.66669
4.0110617 -0.11585065 0.65180379 387
4.0634055 -0.074598014 0.7018348 350.5
4.119009 0.06808532 0.65902519 307
3.9964232 0.20861667 0.69768327 341.5
3.9754772 0.36538538 0.69047099 316.20001
4.0152874 0.45171493 0.65889055 303
4.1099014 -0.22099003 0.80154693 310
4.1478662 -0.062301867 0.82000709 287
4.1269202 0.070948236 0.80143732 300.5
4.0021896 0.207726 0.83572251 1275.5
3.9793928 0.34461048 0.83618736 1280
4.0555606 0.44013858 0.80154055 432
4.1330967 0.46905571 0.81133699 299
4.0058327 0.14719342 0.92629832 443
4.0264511 0.25456405 0.97646374 365.5
4.1075945 0.17641556 0.94128025 309
4.0887251 0.36994845 0.97423077 312.33334
3.9553461 0.24739924 1.1422303 353.5
4.0557323 0.18063112 1.116281 307
4.0173373 0.32246703 1.1127564 301
4.0200629 0.22468643 1.2853148 263
4.0801749 0.18507391 1.2109256 267
4.0200601 0.31706312 1.2018009 299
