# .PCD v0.7 - Point Cloud Data file format
VERSION 0.7
FIELDS x y z intensity
SIZE 4 4 4 4
TYPE F F F F
COUNT 1 1 1 1
WIDTH 1
HEIGHT 62
VIEWPOINT 0 0 0 1 0 0 0
POINTS 62
DATA ascii
3.9428663 -0.19367473 0.084422462 463.5
3.9423499 -0.07270816 0.097484216 409
3.9408429 0.047404733 0.083833896 844.25
3.8730717 0.18952075 0.050394475 252
3.3832898 0.34524199 0.098014891 367
3.4983006 0.38113403 0.041592192 321
3.6605277 0.4803535 0.073292971 317
3.956008 -0.2159784 0.25071329 1042.5
3.9688904 -0.072963886 0.24952731 432.25
3.9465942 0.065815464 0.23589614 1560
4.069685 0.086873442 0.28974181 249
3.5935481 0.29949015 0.22686306 330
3.5472353 0.37386495 0.18531182 374.60001
3.6317635 0.42943045 0.22695085 363
3.594214 0.47285441 0.15342781 381
3.643636 0.50071746 0.22775075 347
3.9672163 -0.2151255 0.38070768 1371
3.9969518 -0.073058739 0.37962037 410
3.9754884 0.060678016 0.37957853 1897
4.0840936 0.082482874 0.37934583 291
3.9733689 0.25960481 0.38123563 277
4.0857511 0.17984454 0.3799814 250
3.5790572 0.36207283 0.30586541 379
3.6489482 0.36535493 0.36373335 320.5
3.7827277 0.38200024 0.34243366 312
3.6336546 0.49563074 0.34751779 414.5
3.9836698 -0.21465069 0.51512218 1826
4.0158873 -0.072866 0.51492709 379.25
4.0314593 0.071487226 0.5001604 438.33334
4.0754213 0.070293821 0.56299293 313
3.8655629 0.25385258 0.52631754 337.66669
3.9414623 0.18808615 0.52836215 345
4.1404123 0.1692535 0.47259897 339
3.694191 0.36976355 0.46673936 340
3.8574252 0.37039655 0.55761683 1575
3.9078207 0.43709552 0.56155527 307
3.6941111 0.50095534 0.47025645 332
4.1076546 0.55884981 0.57409561 373
4.005733 -0.21681511 0.69857776 1771
4.0574894 -0.21647467 0.65622234 695
4.039403 -0.11909093 0.65380722 376
4.0674791 -0.058126397 0.686584 363.66669
4.0635786 0.071060777 0.65517044 321.5
3.9930215 0.20892921 0.6975444 350.25
3.9704869 0.36532387 0.68989843 320.60001
4.0093031 0.45134529 0.65847218 303
4.1038713 -0.21378748 0.75355613 321
4.1019206 -0.051722582 0.77529061 298.75
3.9539409 0.1490836 0.82900184 3609
4.1214647 0.075505957 0.78503036 308.33334
3.9789224 0.22543405 0.8332715 2009.6667
3.9809866 0.37338245 0.83732939 2119
4.0961118 0.4491716 0.75880206 291
4.1305919 0.4691053 0.81102252 298
4.0731273 0.14896384 0.93594688 346
4.0116444 0.25722438 0.98945129 345.66669
4.1084061 0.21419364 0.9421252 321
4.1310048 0.39328772 0.95026714 375.5
4.2425914 0.37990737 0.96551168 427
3.9898593 0.22666042 1.1489121 320.5
3.9888592 0.32118741 1.1073041 315
4.0248275 0.31863877 1.2028751 283
