# .PCD v0.7 - Point Cloud Data file format
VERSION 0.7
FIELDS x y z intensity
SIZE 4 4 4 4
TYPE F F F F
COUNT 1 1 1 1
WIDTH 1
HEIGHT 52
VIEWPOINT 0 0 0 1 0 0 0
POINTS 52
DATA ascii
1.314949 2.0567091 0.0040587783 412
3.8997488 -0.23876694 0.12823072 2145
3.9396658 -0.19402641 0.064501926 401
3.9463358 -0.072377488 0.097066969 419.33334
3.9400735 0.031779185 0.070597313 517
3.5342832 0.28874856 0.048103973 294
3.3907347 0.3458488 0.097314373 368
3.4657927 0.34118909 0.021592319 293
3.6565225 0.48105839 0.14898229 299
3.9647746 -0.21593626 0.25066513 895
3.9843822 -0.072967961 0.24898693 429.5
3.9921563 0.054642737 0.24842095 323.5
3.5575137 0.2959525 0.19122469 365
3.551147 0.37112224 0.17372522 397
3.6298106 0.41237986 0.2267523 367
3.6321239 0.47942007 0.22789267 343
3.9961889 -0.21638651 0.38063067 417
4.0024586 -0.072758123 0.37960345 408.5
3.9279814 0.25643456 0.38134295 301
3.5872636 0.33284 0.30510968 427
3.6555319 0.36749884 0.34392524 370
3.8835421 0.42965782 0.3846181 311
3.6486011 0.49249411 0.36049876 381.66669
4.0201159 -0.21621521 0.51632375 386
4.0230112 -0.078762941 0.50869769 374.14288
4.0629668 -0.030428965 0.56229967 371
4.1258345 0.072586693 0.56529093 309
3.8755817 0.21870796 0.49701566 338.33334
3.9424503 0.19944668 0.52250814 639.40002
3.7294652 0.373667 0.46753177 329.5
3.9467769 0.39500904 0.56218749 317
3.7326474 0.50687528 0.47116897 315
4.0739017 -0.21776208 0.65738142 380
4.0483608 -0.11696608 0.74709797 272
4.0617557 -0.072845392 0.65512937 382.5
4.0012894 0.067388996 0.65080374 180
4.1408272 0.075113535 0.66058308 283
4.0183983 0.21055654 0.69944668 356.75
4.0185914 0.35215697 0.65627122 322
4.0661135 0.45516425 0.66245407 292
4.108077 -0.21864623 0.75403237 317
4.1135302 -0.058282346 0.75292456 308
3.9909079 0.079752311 0.83270448 1503
4.1086578 0.067745939 0.78386915 289.66669
3.9599855 0.15860277 0.829849 2955
4.0745163 0.26044232 0.84522891 319
4.0149336 0.34299624 0.79376072 1166
4.0784392 0.39029583 0.78661537 311
4.1774902 0.46295899 0.81492949 298
3.9819324 0.24876158 0.98420036 405
4.0966997 0.19414911 0.96336794 311.5
3.9788969 0.22624569 1.1244516 328.25
