# .PCD v0.7 - Point Cloud Data file format
VERSION 0.7
FIELDS x y z intensity
SIZE 4 4 4 4
TYPE F F F F
COUNT 1 1 1 1
WIDTH 1
HEIGHT 61
VIEWPOINT 0 0 0 1 0 0 0
POINTS 61
DATA ascii
4.4717331 0.69226313 0.046077907 309.5
3.9335799 -0.20413558 0.085174784 649.66669
3.9638546 -0.05683282 0.082027704 385.66669
3.9333599 0.037718091 0.084378555 1254
3.6364856 0.29296803 0.073486358 257
3.5583277 0.37410545 0.046537191 320
3.6309733 0.38906693 0.039222553 291
3.5734048 0.45607325 0.081268579 339
3.9597874 -0.2008608 0.25056058 1005
3.9870849 -0.059366584 0.24870428 430
3.9967768 0.046586685 0.24861702 439
3.5809102 0.29202434 0.18981841 336
3.5388784 0.35950199 0.17451864 407
3.6209946 0.40210089 0.22702062 363
3.6112928 0.46419129 0.19039331 379
3.9806395 -0.22501978 0.3807801 994
4.0094972 -0.082786955 0.37962389 407
4.0116124 0.052811686 0.37945223 364
4.1023211 0.14293613 0.37963355 260
3.6245327 0.29966852 0.30357355 373
3.9565759 0.24862269 0.38114789 278
4.0880079 0.17435235 0.37992579 412
3.5793865 0.32098824 0.30512977 419
3.6708069 0.36823907 0.35181022 334.60001
3.7584999 0.42253774 0.38498122 297
3.6446788 0.48225784 0.36028689 393.66669
4.0297627 -0.22649871 0.51674151 501.5
4.0191202 -0.074563742 0.50862312 378.42859
4.0555272 -0.1388389 0.56254816 369
3.92045 0.14137504 0.51222157 1405
4.182446 0.063509069 0.56782156 309
3.8886974 0.24020846 0.51215398 543
3.935477 0.20375992 0.51349795 742.75
3.6864486 0.36484253 0.46646675 338
3.8438549 0.37340584 0.51369405 1109.5
3.998723 0.39062226 0.56436729 310
3.6656458 0.49873275 0.46964878 359
4.0616522 -0.22682533 0.68773305 395.66669
4.0725141 -0.083023801 0.65593773 375.5
4.0413842 0.056205899 0.65355372 118
4.076807 0.067690685 0.70255286 297
4.0074925 0.2002241 0.69849038 373
3.9903157 0.3609325 0.67748392 322.5
4.0925288 0.45275384 0.66417283 307
4.1425714 -0.23210815 0.80553544 279
4.1067228 -0.062325105 0.77585936 324.25
4.2011952 -0.1340588 0.76166081 261
3.9482009 0.14360721 0.82825106 2741
4.0875244 0.063055404 0.797243 357.5
4.0376825 0.20102215 0.83978927 356
4.0526495 0.2528865 0.84247988 349
3.9663827 0.32364038 0.83404982 1965
4.0840158 0.39399695 0.80330819 358
4.2712955 0.47723004 0.82626319 240.5
4.102026 0.14466333 0.94002277 307
4.0084715 0.24139723 0.98841619 371
4.0729733 0.19535463 0.96742725 363.33334
4.1633077 0.38386154 0.95451701 291
3.9311497 0.12888572 1.09162 306
3.9812694 0.23375118 1.132785 344.33334
4.0661025 0.16942531 1.1180542 299
