# .PCD v0.7 - Point Cloud Data file format
VERSION 0.7
FIELDS x y z intensity
SIZE 4 4 4 4
TYPE F F F F
COUNT 1 1 1 1
WIDTH 1
HEIGHT 76
VIEWPOINT 0 0 0 1 0 0 0
POINTS 76
DATA ascii
6.3467345 -1.7777807 0.12473166 382
4.9216051 -0.63841903 0.05858767 1109
4.9396653 -0.52362609 0.055563778 314
4.6991954 -0.34439433 0.071033299 433
4.9551826 -0.43101102 0.053277433 321
4.6313171 -0.26108965 0.075283647 318
4.6457267 0.27965516 0.074368775 319
4.6108122 0.33592403 0.077383399 313
4.9474683 -0.66581887 0.1644488 1543
5.0012941 -0.63583267 0.23524457 429.66669
4.9953632 -0.52636039 0.21490261 306
4.8025603 -0.35612059 0.16688824 445
4.975225 -0.40573832 0.2319358 363
4.6408839 -0.26058215 0.17403275 325
4.7035518 -0.2315965 0.23896615 342
4.8292999 -0.16878462 0.27002156 287
4.9328904 -0.067125104 0.26684248 295
4.8994408 0.06183324 0.21426716 298
4.645103 0.28716025 0.27594095 325
4.6684351 0.28493902 0.17286891 297
4.8430138 0.19210938 0.23398826 322
4.6351686 0.33130479 0.17499918 295
4.6633763 0.3269186 0.27591473 317
5.0101967 -0.64198077 0.38483813 414
5.0000787 -0.52320099 0.38211182 316
4.9655275 -0.3931644 0.37982523 1157
4.6886797 -0.25421187 0.37885815 285
4.8745294 -0.27919227 0.37855083 245
5.0549316 -0.17089207 0.37700385 369
4.9074888 -0.073740534 0.37702841 298
4.9685726 -0.061997473 0.3767432 291
4.9146538 0.086122565 0.37697649 906
4.8024626 0.20250493 0.37800199 285
5.0249 0.19708697 0.37728667 2293
4.6543431 0.31975701 0.37978625 313
4.9606342 0.31180283 0.37866938 718
5.0217552 -0.640544 0.49972811 317
5.022552 -0.52324438 0.49666423 302
5.0034418 -0.39454836 0.49359155 460
4.8221936 -0.26583678 0.48788387 285
5.1839805 -0.16911876 0.49448103 299
4.9347725 -0.036991794 0.48862466 1276
5.0607257 -0.14502917 0.49172139 321
4.982626 0.087043025 0.48977289 489
5.0484276 0.2070895 0.49195737 367
5.1325293 0.20610726 0.49370885 319
4.8392787 0.32649913 0.48908782 257
5.0525627 -0.64081705 0.65690893 317.66669
5.1373529 -0.64901948 0.74154031 291
5.030427 -0.51772356 0.65214771 292.33334
5.1021571 -0.53552985 0.73546559 293
5.0450068 -0.39611655 0.61084253 315
5.1194186 -0.40032679 0.73316443 297
4.8800826 -0.27313876 0.60133833 286
5.0439067 -0.15206431 0.72411913 433
5.1853876 -0.15829583 0.6538254 278.33334
4.9261417 -0.023215411 0.60148817 1915
4.9955082 -0.041855156 0.68155074 900.33337
5.0481501 0.087594479 0.66560119 474
5.0293684 0.20257309 0.66558075 285
5.1259074 -0.65142834 0.86105245 289
5.0880451 -0.51922786 0.85288823 295
5.1024804 -0.40162262 0.85094458 287
5.0829058 -0.15969963 0.84497523 299
5.001852 -0.033890292 0.83658266 2123
5.1461549 -0.041428689 0.85021657 257
5.0132017 0.081941172 0.83782613 1699
5.2131124 0.094561942 0.85674959 273
5.1007066 0.19020621 0.846977 297
5.1824474 -0.16765371 0.97502619 432
5.0482078 -0.035102926 0.95818883 279
5.1802392 -0.040427294 0.97389978 265
5.1886954 0.079114199 0.97505587 299
5.0301609 -0.036834095 1.1295207 270
4.9917994 0.064852454 1.1807911 277
5.1404085 0.087883011 1.0881436 275
