# .PCD v0.7 - Point Cloud Data file format
VERSION 0.7
FIELDS x y z intensity
SIZE 4 4 4 4
TYPE F F F F
COUNT 1 1 1 1
WIDTH 1
HEIGHT 80
VIEWPOINT 0 0 0 1 0 0 0
POINTS 80
DATA ascii
6.5257087 -1.8314291 0.11697084 242
4.922091 -0.67193502 0.05910176 1741
4.9900875 -0.61588454 0.053185582 303
4.9676852 -0.52472496 0.053524345 320
4.8472838 -0.35697553 0.06037879 793
4.9879217 -0.43445131 0.050929189 313
4.6482186 -0.2875821 0.074249506 309
4.6672997 -0.23486674 0.072487354 305
4.6686983 0.27988255 0.072702289 319
4.6237402 0.33692449 0.076452255 307
4.7192831 0.39242202 0.070049107 249
4.9393721 -0.66600358 0.16486627 1947
4.9890041 -0.63465869 0.23540714 822.33337
5.0085244 -0.52583963 0.21439838 313.5
4.9377832 -0.36968404 0.21458936 1718
4.9963846 -0.42419899 0.21307498 328
4.6437817 -0.27786607 0.22500157 326
4.6679745 -0.24091884 0.22380573 317
4.8272696 -0.16958737 0.27008033 285
4.9649673 -0.060923684 0.26598006 291
4.9619107 0.065189198 0.26607043 285
4.6882629 0.2868633 0.22334987 307
4.8338041 0.18179125 0.26998538 283
4.6811476 0.33152348 0.22400308 305
5.0021715 -0.64161694 0.38486576 1010
5.0296278 -0.52460724 0.38201854 311
4.958488 -0.39336053 0.37985286 1800
4.7010155 -0.248643 0.37875879 313
4.8343935 -0.28019997 0.37869078 265
5.082881 -0.17280802 0.37693423 299
4.911479 -0.075643405 0.37701881 303
5.0076523 -0.05582026 0.37661695 299
4.9268641 0.10202464 0.37699717 307
5.0004516 0.070788689 0.37667578 295
4.7481871 0.29641971 0.37916654 259
4.8081765 0.20895231 0.37804061 297
5.0520067 0.19504307 0.37718934 345
4.6653142 0.32055715 0.37976068 327
5.0449352 -0.64443195 0.50028574 561
5.0381908 -0.52298057 0.4969641 316
4.9849463 -0.3937791 0.49320051 1402
4.8475184 -0.26085904 0.48834795 269
5.2239156 -0.1714281 0.49533707 289
4.9276972 -0.049354155 0.48849165 2397
4.9973254 -0.08275196 0.49014765 299
5.007627 0.086989626 0.49029985 449
5.0747275 0.20049436 0.49244726 1015
5.109067 0.21629374 0.49331373 343
4.7435446 0.31965846 0.48701179 257
5.0627012 -0.6427784 0.65761399 323.66669
5.1490331 -0.65195978 0.74243307 309
5.0658679 -0.52144384 0.65385896 293.66669
5.1257133 -0.53129792 0.73694909 293
5.000133 -0.38733047 0.60866553 901
5.1264029 -0.40415686 0.69422954 288.33334
5.0937309 -0.15454789 0.72761387 319
5.2089906 -0.15935361 0.65521145 406.33334
4.9351144 -0.026516713 0.60189998 2367
5.0251503 -0.038772512 0.68337643 946.33337
5.0451622 0.086980209 0.66549331 867
5.0423889 0.20208542 0.66621816 302
5.1344142 0.2114273 0.6715104 302
5.158433 -0.65601903 0.86421663 289
5.1084609 -0.52481681 0.85495692 291
5.1519899 -0.4068751 0.85569465 303
5.160213 -0.15632057 0.85222739 275
5.017756 -0.037296578 0.8380909 1929
5.2059417 -0.035101105 0.85584372 267
5.0092387 0.080780253 0.83744657 1871
5.2240615 0.0947714 0.85778368 293
5.0954685 0.19647701 0.84655786 303
5.1705379 -0.16724727 0.97360796 231
5.0929375 -0.028790023 0.96349341 289
5.2268786 -0.044237167 0.97945541 269
5.1857352 0.077944063 0.97469819 281
5.0556941 -0.041245598 1.1141701 268.33334
5.0401368 0.064447433 1.1888812 273
5.1100264 0.071043693 1.0836877 269
5.114522 -0.018028317 1.2011859 283
5.0341434 0.058863465 1.30196 296
