# .PCD v0.7 - Point Cloud Data file format
VERSION 0.7
FIELDS x y z intensity
SIZE 4 4 4 4
TYPE F F F F
COUNT 1 1 1 1
WIDTH 1
HEIGHT 92
VIEWPOINT 0 0 0 1 0 0 0
POINTS 92
DATA ascii
3.3491325 0.73547381 0.040362567 313
3.2351811 -0.33839968 0.080173194 351
3.2541227 -0.22403497 0.077272117 337.5
3.2627206 -0.068439588 0.075645909 348
2.7893066 0.068726316 0.048043948 274
2.8985217 0.065092377 0.14197248 276
3.2684443 0.060307965 0.075032718 369
2.673388 0.2621285 0.051846236 351.5
2.798687 0.26613754 0.072753802 447
3.2812064 0.20193876 0.078829706 349.00003
3.3010693 0.23167542 0.039936185 331
2.6211271 0.31813011 0.071402714 410
2.6510634 0.51234645 0.079105116 427
2.7666402 0.47869974 0.046247553 356.28574
3.2327542 -0.33529869 0.21164396 361.5
3.2535002 -0.22213833 0.20903741 347
3.2554345 -0.067777798 0.20802067 369.25
2.8575246 0.060833056 0.20280668 278
3.2710509 0.092962369 0.20706663 367.33334
2.5993385 0.2741538 0.23388767 402.60001
3.2777202 0.22282267 0.20755532 372.33334
2.5348425 0.33076623 0.28096411 439
2.5819585 0.33695069 0.21574509 439
2.71438 0.40666339 0.21712464 637
3.304033 0.30486596 0.2068955 345
2.632525 0.52568835 0.23161617 418.20001
2.7180486 0.47158009 0.21949556 501
2.805959 0.62644303 0.21562985 597
3.23242 -0.3322967 0.34998375 347
3.248456 -0.22348925 0.35307351 338.14288
3.317498 -0.19866271 0.31053686 309
3.26319 -0.067300551 0.34646049 345.25
2.8062692 0.1034552 0.39548802 365.20001
3.2684484 0.067674987 0.33451867 369
2.5497551 0.2576775 0.33217308 407
2.6427345 0.24190161 0.39661503 387.54547
2.7544086 0.17843147 0.38363907 462.60001
3.2934635 0.21332349 0.31134719 361
2.5301003 0.34243107 0.34806448 497.5
2.6381259 0.36373407 0.40814716 356.33334
2.775656 0.38762444 0.41898781 337
2.6107633 0.50096583 0.35836357 436.25
2.7523904 0.54258823 0.39417976 633
2.9321349 0.68330896 0.33407003 543
3.2364869 -0.32966173 0.49301523 339
3.2742684 -0.21967658 0.49197847 319
3.2847672 -0.06615679 0.49056268 316.33334
3.3065543 -0.070781343 0.49129701 318
2.8120098 0.10479508 0.52656615 1609.6667
2.880384 0.10765758 0.57293701 321
3.274102 0.036875792 0.45353717 335
3.3355641 0.040895205 0.52929884 255
2.7825661 0.22378419 0.53503561 1220.6364
2.8012848 0.39861962 0.48148125 333
2.8826725 0.37249023 0.54074401 425
2.7850416 0.49972022 0.45379654 301
2.9421275 0.45067307 0.58676761 313
3.0518165 0.46664539 0.55978978 430
3.2488773 -0.35219657 0.6406517 321
3.2658927 -0.2214552 0.65064573 317.44446
3.2848325 -0.072501637 0.66671866 318.77777
3.3034806 -0.027591174 0.60193056 311
2.8111053 0.10186785 0.65093631 409
2.9080448 0.065577991 0.68179321 321.66669
3.06603 0.038544461 0.72254401 271
3.3887858 0.046673346 0.68442392 283
2.7960031 0.2273033 0.65229589 468.33334
2.9019639 0.21203108 0.70574933 555
2.9106777 0.38927469 0.68046492 396.5
2.9419806 0.45230967 0.71990347 445
3.277317 -0.36150047 0.76936769 303.80002
3.3169584 -0.38061318 0.83491629 286.33334
3.2803192 -0.21482658 0.80906373 299.20001
3.3244982 -0.19744202 0.80523652 302.33334
3.2952971 -0.059366934 0.82354212 298
3.3247211 -0.073112778 0.82796919 310
2.9012353 0.10330869 0.81891918 487.80002
3.0165129 0.048025366 0.78368193 355
3.2482653 0.035829 0.85324496 338.5
2.8226888 0.21839626 0.82091379 2913
2.9112706 0.2182152 0.81828499 561.90912
2.9354703 0.37165824 0.8135519 848.75
2.9752262 0.458745 0.79103923 465
3.1966474 0.13379416 0.95135891 408
2.9121504 0.23872721 0.97428745 348.39999
3.0140021 0.19331947 0.91790271 333
2.9378965 0.33064026 0.97113192 328.60001
2.8453674 0.24225569 1.0800633 420
2.9143133 0.22467202 1.1213782 352.66669
2.8374386 0.30757099 1.0671911 505
2.892204 0.32797313 1.1209526 335.66669
2.9705689 0.27303427 1.2151959 269
