# .PCD v0.7 - Point Cloud Data file format
VERSION 0.7
FIELDS x y z intensity
SIZE 4 4 4 4
TYPE F F F F
COUNT 1 1 1 1
WIDTH 1
HEIGHT 61
VIEWPOINT 0 0 0 1 0 0 0
POINTS 61
DATA ascii
4.3443742 0.74589318 0.10325563 346
3.9520214 -0.19540095 0.083618164 401.83334
3.9397161 -0.058139946 0.092235297 424.20001
3.9339116 0.044799346 0.084545232 986.25
3.5795162 0.41769728 0.056400619 349
3.5591955 0.46441203 0.082736522 395
3.9577782 -0.2154564 0.25060469 916
3.9820936 -0.074110441 0.2489869 427.75
3.9619503 0.063289225 0.23510411 1586.6667
4.0677266 0.085031502 0.2897867 281
3.5681834 0.29692322 0.15288979 206
3.8732681 0.23274733 0.296022 262
3.5391424 0.37082773 0.18578504 383
3.6480098 0.36760426 0.22516586 309
3.5717177 0.46806595 0.15500185 401
3.6248016 0.49827302 0.22866556 378
3.9807217 -0.21530434 0.38066825 1304
3.9996696 -0.073937617 0.37961882 407.5
4.0003438 0.068343632 0.37953562 1180
3.8972309 0.26625642 0.38157398 287
3.9022214 0.23767576 0.3811785 355
3.5801964 0.34862432 0.33188531 395.66669
3.6870868 0.37650514 0.35164222 309.80002
3.6412559 0.49714649 0.34741837 402
4.0051603 -0.21521923 0.51570386 1410
4.0079832 -0.073543712 0.51472765 381.25
4.0181789 0.068880931 0.49973235 564.33337
4.0525131 0.066341102 0.56193614 369
3.8912151 0.23995486 0.46824896 1767
3.937171 0.20149852 0.51981473 656.71429
3.6599269 0.35260636 0.46566081 358.33334
3.838748 0.38160098 0.53527844 1344.5
3.9052548 0.4333483 0.56133533 309
3.8395762 0.5321393 0.47397768 329
4.0402007 0.54215407 0.47807348 359
4.0942421 0.55734932 0.57346869 330
4.0406098 -0.21462026 0.65502238 1331
4.0733414 -0.21879765 0.65735841 741
4.028883 -0.027406242 0.68341607 379.66669
4.0674 -0.097396299 0.70221847 369.5
4.0696096 0.066344403 0.68662566 421.33334
3.995353 0.2144765 0.70430928 353.85715
4.0621662 0.1638027 0.65584046 313
3.9734046 0.37858996 0.6844244 314.66669
4.1031132 -0.21828625 0.75355995 316
4.1555252 -0.026268281 0.85203648 355.5
4.2327704 -0.13341908 0.86190897 253
4.1381149 0.071332201 0.81823272 286.33334
3.9806812 0.20587525 0.83313692 1530
4.0314989 0.37995607 0.81262797 301.66669
4.0535336 0.43599385 0.84790772 311
4.1448879 0.46721181 0.81209123 292
4.0073442 0.25135726 0.97352433 366
4.0937672 0.17542934 0.93928844 394
4.0390172 0.33551234 0.93522364 367
4.0938282 0.37914705 0.97518396 329
3.9422717 0.24466422 1.1395075 350.5
4.0704646 0.18098889 1.1191007 277
3.9855607 0.31660807 1.1503584 313
4.0212231 0.22171478 1.2855098 245
3.9418926 0.30467203 1.2693872 314
