# .PCD v0.7 - Point Cloud Data file format
VERSION 0.7
FIELDS x y z intensity
SIZE 4 4 4 4
TYPE F F F F
COUNT 1 1 1 1
WIDTH 1
HEIGHT 61
VIEWPOINT 0 0 0 1 0 0 0
POINTS 61
DATA ascii
4.4205499 0.58884084 0.0023109317 220
3.8919082 -0.24241383 0.048923135 2155
3.9474933 -0.20323646 0.097422794 1003
3.9542265 -0.096055493 0.083086222 419
3.9583867 0.022243585 0.08278285 819.5
3.5121613 0.2908805 0.050717026 377
3.3883605 0.34570462 0.030626595 363
3.5801797 0.38989443 0.079818904 342.33334
3.6909995 0.48533913 0.07045579 285
3.9848642 -0.21438278 0.24967416 464
3.9871545 -0.071464151 0.24879882 430.5
4.0249667 0.082727246 0.23264885 262.33334
3.5609775 0.29912376 0.15343878 379
3.9117472 0.24180578 0.29509026 235
4.0596571 0.15167254 0.29034793 416
3.5543003 0.35788581 0.18470977 401
3.6202979 0.43249455 0.2275897 429
3.7968924 0.41206425 0.2600334 285
3.6406956 0.48103759 0.18889952 352
4.0033336 -0.21397024 0.38058269 401
4.0129766 -0.071518555 0.37957019 397.5
3.8853378 0.2643567 0.38158721 299
3.9077771 0.2445759 0.38124788 297
3.5781858 0.33319339 0.30536318 427
3.6531124 0.36989352 0.35769671 386.66669
3.6809204 0.49950695 0.36041126 365
4.0305004 -0.21399397 0.51666433 384
4.017024 -0.086982571 0.49992156 376.33334
4.0600195 -0.023328161 0.56215394 381
4.1512947 0.073295236 0.5664506 298
3.8942845 0.19757347 0.52068555 836.20001
3.9526663 0.22627297 0.49963391 665.66669
3.6913977 0.37921447 0.46690524 349
3.8663037 0.3867963 0.51469469 791
3.9895315 0.39718139 0.56411779 302
3.7758491 0.52566141 0.47257507 305
4.0626106 -0.21429276 0.65654486 380
4.0488276 -0.12088679 0.65447932 381
4.0806141 -0.063926071 0.69372195 379.39999
4.024971 0.068252981 0.69825327 281
4.117898 0.074140482 0.65897751 244
4.0078435 0.21773854 0.70539987 357.57144
4.0669055 0.16948922 0.65623713 307
4.006938 0.35157058 0.685902 324.33334
4.0213127 0.451745 0.6593008 303
4.0940385 0.45689237 0.66440648 291
4.1191492 -0.2183678 0.78717089 321.66669
4.1604414 -0.061347213 0.82125914 285.66669
4.0138302 0.076111421 0.83540392 1187
4.0924091 0.069160543 0.79771894 286
3.9943898 0.20954853 0.83482754 1409
3.9880135 0.35868126 0.83762264 2401
4.0617366 0.35452443 0.79933584 304
4.1422043 0.45634454 0.81142735 296
4.2372346 0.47616541 0.77276677 287
4.0528808 0.059334539 0.93219447 392
4.0311065 0.22930703 1.0224534 354.66669
4.065515 0.21205482 0.93600595 340.5
4.1381006 0.39652306 0.9513948 342.5
3.9654675 0.22479326 1.1217724 350.5
4.0434399 0.22894037 1.2331619 278.33334
