# .PCD v0.7 - Point Cloud Data file format
VERSION 0.7
FIELDS x y z intensity
SIZE 4 4 4 4
TYPE F F F F
COUNT 1 1 1 1
WIDTH 1
HEIGHT 92
VIEWPOINT 0 0 0 1 0 0 0
POINTS 92
DATA ascii
4.8208175 -1.9346342 0.10811818 240
3.1177382 -0.65208834 0.066982538 2145
3.1780024 -0.60975212 0.090147972 503
3.1802564 -0.5180335 0.088347331 512
2.7938957 -0.3140139 0.048012711 534.5
2.9118278 -0.34070495 0.08598122 491
3.1124835 -0.4050597 0.063716978 1300
3.1631715 -0.42253193 0.088801071 528
2.8267703 -0.25814551 0.082425669 498.5
2.8588376 -0.2436856 0.11910407 537
2.8350253 0.29181024 0.041406751 571
2.8673449 0.28258446 0.091180801 515.5
3.4475055 0.20269983 0.090708911 304
3.6201289 0.21068715 0.0028448105 388
2.8274372 0.36083972 0.089118913 529.85718
2.8762765 0.35808533 0.11840445 476
3.1407228 -0.6448918 0.19083574 2249
3.2055788 -0.62915468 0.23105657 931
3.2008336 -0.51722407 0.21723607 492.5
2.8276663 -0.30427253 0.17881012 552
2.8554842 -0.30108896 0.26409417 551
3.1415102 -0.3739624 0.18508452 2265
3.190335 -0.40484414 0.22654414 1101
2.8306549 -0.23507339 0.20596111 581
2.8867745 -0.2461469 0.24690834 502
3.0287118 -0.21238649 0.19131282 295
2.8931189 0.28106993 0.22214064 510.33334
3.3097844 0.19924341 0.23996106 242
3.4501116 0.2056805 0.16063005 318
2.8445694 0.33683121 0.20629868 483
2.8765929 0.34590381 0.2488779 495.5
3.2370911 -0.63773489 0.35877466 618
3.2344575 -0.51841533 0.35478705 508.5
3.2045422 -0.39704746 0.35196275 1438.5
2.8478992 -0.27158985 0.32425153 573
2.9155052 -0.24208386 0.37244794 464.60001
3.0432067 -0.15717216 0.36076769 365.33334
3.1104043 -0.05205331 0.3534531 410.71429
3.09552 0.084073812 0.3748067 393.88889
2.9470081 0.24633956 0.37417361 482.66669
3.035327 0.18923293 0.38356376 403.66669
3.1609857 0.21579665 0.31493652 275
2.8804548 0.31932721 0.37426761 565.79999
3.2513113 -0.63466865 0.50458682 510
3.2441659 -0.51511055 0.49908951 483.25
3.2007687 -0.39271277 0.49367195 2252
3.0909827 -0.15704618 0.45056361 307
3.2538161 -0.17386425 0.54491091 367
3.3239264 -0.17265068 0.52988416 1035
3.1367748 -0.069467969 0.49735531 1211.6667
3.198055 -0.040180221 0.5134536 746.14288
3.1222534 0.12931317 0.48577571 417
3.2245827 0.066243552 0.53668928 796.66669
3.0962548 0.26137909 0.45234001 243
3.2359977 0.2033309 0.52623916 339.66669
3.3362134 0.21530925 0.53108913 255
2.9337316 0.31525475 0.45031869 368
3.2789292 -0.63428473 0.65577543 481
3.1936643 -0.50146651 0.64213353 370.25
3.2582505 -0.39654323 0.64274764 432
3.2913399 -0.17591958 0.67663056 385
3.3176146 -0.16994675 0.67899758 409
3.2533176 -0.064631723 0.68622279 866.20001
3.252794 0.08694946 0.70319676 962.71436
3.3169155 0.13190494 0.65348709 380.33334
3.2773113 0.20789897 0.65137047 409.66669
3.2694247 -0.63445657 0.76793736 479
3.3595281 -0.66122079 0.81806403 432.25
3.2502549 -0.50126624 0.77274382 319.80002
3.3497365 -0.52068752 0.84659481 296
3.3452911 -0.40407032 0.80232072 333
3.3287735 -0.17306218 0.79267478 425
3.2609262 -0.067334875 0.81890017 2075
3.3276663 -0.047313586 0.82832217 411
3.2412677 0.081741385 0.81620353 2418
3.3361187 0.10373087 0.83002168 376
3.2947533 0.19708553 0.78872871 454
3.3027229 0.21591729 0.75306451 405
3.4618249 0.22967289 0.85020971 281
3.3974316 -0.18979205 0.91581339 307
3.259728 -0.0023873565 0.99739408 329
3.3720675 -0.052145898 0.94639909 333.66669
3.2428613 0.036130205 1.0291176 331
3.3482256 0.068060376 0.92401969 330
3.330035 0.1928831 0.90464789 345
3.2625225 -0.050531548 1.1468687 309.66669
3.3287747 -0.068841062 1.1181366 273
3.2346139 0.01761074 1.1286545 340
3.355814 0.078175709 1.1238775 266.33334
3.2117994 -0.047572594 1.2199407 347
3.3992114 -0.063082889 1.2729276 237
3.2169518 0.017277909 1.2212319 358
