# .PCD v0.7 - Point Cloud Data file format
VERSION 0.7
FIELDS x y z intensity
SIZE 4 4 4 4
TYPE F F F F
COUNT 1 1 1 1
WIDTH 1
HEIGHT 74
VIEWPOINT 0 0 0 1 0 0 0
POINTS 74
DATA ascii
6.5344415 -1.9040452 0.11946523 274
4.907156 -0.67068094 0.060179591 1951
4.9681172 -0.60683197 0.054657459 315
4.9626112 -0.52084583 0.053841352 319
4.7358251 -0.34938619 0.068415523 471
4.9497461 -0.42465755 0.053604066 333
4.615427 -0.28461868 0.076608002 319
4.6775317 -0.23017171 0.071715236 317
4.641901 0.27692083 0.07462579 329
4.6203094 0.34250608 0.076754153 323
4.9303474 -0.66561961 0.16531968 1759
4.9841976 -0.63025397 0.23550043 547
4.9853058 -0.51998687 0.21516356 316
4.8402286 -0.36126468 0.16505861 395
4.9628949 -0.40152681 0.23227596 719
4.6610284 -0.25673684 0.22419527 319.5
4.8452029 -0.17154031 0.26961654 291
4.9316826 -0.12581909 0.26707733 241
4.9731884 -0.033021621 0.26572517 286
4.8885236 0.087775774 0.2680794 343.5
4.692831 0.28589654 0.2231591 308
4.8399153 0.20213205 0.26997277 279
4.6617842 0.33591926 0.22497401 312
5.0044742 -0.63941371 0.38480118 564
5.0309992 -0.52137005 0.38194358 316
4.9691753 -0.39168793 0.37978658 1348
4.7252679 -0.24476044 0.37864166 295
4.8204722 -0.27849486 0.37871528 273
5.1018195 -0.1748445 0.37689209 319
4.9195576 -0.072839215 0.37698084 305
4.9777145 -0.050137255 0.37669003 305
4.9098973 0.10034155 0.37703907 301
4.997355 0.07696598 0.37670314 311
4.747273 0.29508898 0.37915272 253
4.8019438 0.2137973 0.37810278 291
5.0379996 0.19493158 0.37723047 595
4.6718688 0.32686907 0.37982732 325
5.0413074 -0.64135528 0.5001291 321
5.0390377 -0.51991546 0.49690726 312
4.9901524 -0.39159566 0.49326593 1112
4.872777 -0.2569012 0.48882478 289
5.0254116 -0.28427684 0.49233752 450
5.1839004 -0.17142154 0.49449658 293
4.9373298 -0.032444071 0.48866615 1444
5.02493 -0.13791132 0.49092269 495
4.9459791 0.095369883 0.48903191 1759
4.9872346 0.081780083 0.48984677 455
5.1726694 0.21485247 0.49463272 293
5.0781012 -0.64439297 0.67806053 313
5.1218686 -0.64470702 0.68057454 296
5.0603375 -0.51841134 0.67349392 291
5.0622759 -0.39615995 0.65067583 365.66669
5.1755161 -0.39980653 0.73702121 249
5.0311174 -0.21139655 0.66612208 365
5.1983652 -0.15911981 0.67443663 268
5.0168982 -0.032792043 0.66369772 767
5.177712 -0.14718904 0.61343408 285
5.0493708 0.089515448 0.6655491 786.5
5.0293107 0.2068367 0.64613527 293.66669
5.1005526 0.21090224 0.72866017 291
5.1701169 -0.65137005 0.86510772 261
5.1174417 -0.52511394 0.85579824 289
5.1469336 -0.40758535 0.85523999 275
5.1568093 -0.15386964 0.85188282 290
5.0635562 -0.036989544 0.84241199 603
5.1681471 -0.029401802 0.85226619 263
5.0958648 0.080918863 0.84561849 325
5.2269187 0.1012399 0.8580907 295
5.1330428 0.20340733 0.8501783 297
5.0731072 -0.023372428 0.96112627 273
5.1573777 -0.042935278 0.97118866 237
5.2175293 0.077083252 0.97847301 283
5.0356016 -0.032362461 1.130403 284.5
5.0607572 0.066226132 1.1341655 275
