# .PCD v0.7 - Point Cloud Data file format
VERSION 0.7
FIELDS x y z intensity
SIZE 4 4 4 4
TYPE F F F F
COUNT 1 1 1 1
WIDTH 1
HEIGHT 75
VIEWPOINT 0 0 0 1 0 0 0
POINTS 75
DATA ascii
6.3829036 -1.747179 0.12153113 317.5
4.905118 -0.67083764 0.060332298 1937
4.9672704 -0.62886488 0.055065334 309
4.9681358 -0.52557755 0.053497672 318
4.7318144 -0.34950081 0.06870836 465
4.9636269 -0.44802669 0.052852929 319
4.6249194 -0.29231283 0.07597965 311
4.6815076 -0.23055953 0.071429312 303
4.6717634 0.27881235 0.072471559 321
4.6397767 0.32306826 0.075160325 301
4.9828873 -0.65208042 0.21784897 933.5
5.0062437 -0.52633488 0.21459813 311
4.8909745 -0.3657178 0.16256595 453
4.990108 -0.41877806 0.23162006 522.33337
4.670526 -0.2609295 0.22392765 316
4.8451867 -0.17197309 0.2696197 297
4.9870234 -0.055854496 0.26538634 295
4.9750996 0.049346909 0.26568937 293
4.6743889 0.28470972 0.22399986 308
4.8360538 0.17539214 0.26988387 297
4.66082 0.31492543 0.2246716 317
5.0054865 -0.65074211 0.38508326 692
5.0266018 -0.52487445 0.38203216 318
4.9866161 -0.40451068 0.37993994 934
4.701293 -0.24363615 0.37870479 307
4.8635316 -0.15007783 0.37743229 295
5.0262518 -0.23527408 0.3776944 450
4.9688196 -0.036540493 0.3766951 312
4.922894 0.10062262 0.37700278 305
4.9826655 0.054544032 0.37668526 311
4.7532597 0.29548356 0.37913829 267
4.8109341 0.2142214 0.37807912 285
5.0592723 0.18856397 0.37711787 367
4.6623845 0.30537939 0.37956393 323
5.0269442 -0.65065014 0.50011992 406
5.0649557 -0.52666807 0.49757919 308
4.9956522 -0.40334594 0.49359745 1006
4.7709479 -0.25141734 0.48664081 237
5.0791922 -0.16183153 0.49222589 319
5.2468319 -0.17408392 0.4958384 291
4.9307494 -0.044143926 0.48854476 2411
4.9998584 -0.02832536 0.48997849 305
5.0087547 0.078380063 0.49029613 336
5.0334892 0.20501375 0.49162912 621
4.7665467 0.30605736 0.48728096 257
5.0628772 -0.65385199 0.65781081 518.33337
5.1241336 -0.65000832 0.74068338 305
5.0801344 -0.52572358 0.65471137 296.33334
5.1243272 -0.52567506 0.73669147 295
5.0466843 -0.40575019 0.61111557 587
5.1161261 -0.40957493 0.73314536 298
5.0424824 -0.197689 0.68619937 327.66669
5.2209802 -0.16909432 0.61556381 350.5
4.9150939 -0.03290277 0.60100061 2305
5.028491 -0.037463918 0.68356562 901
5.0298252 0.078067005 0.66470742 865.5
5.0299497 0.20088342 0.6654613 301
5.1254673 0.21038109 0.67093724 300
5.1266623 -0.66774654 0.86176813 307
5.1106839 -0.53184527 0.85538709 281
5.1290383 -0.40654179 0.85354394 297
5.1594086 -0.16503716 0.85224009 288
5.0266581 -0.043958791 0.83894753 1893
5.213943 -0.029676696 0.85658818 269
5.0281749 0.079783864 0.83922774 2007
5.1934958 0.07780651 0.85481322 303
5.1151381 0.20265844 0.84848404 293
5.1282673 -0.18190485 0.9687587 382
5.0899878 -0.023454571 0.96313363 285
5.2069526 -0.050868377 0.97710681 265
5.201643 0.076835744 0.97658342 289
5.2040696 0.1999093 0.97797841 356
5.0609889 -0.036131311 1.1344539 271.5
5.0698118 0.072802819 1.1164789 255
5.0813012 0.058138035 1.3109806 392
