# .PCD v0.7 - Point Cloud Data file format
VERSION 0.7
FIELDS x y z intensity
SIZE 4 4 4 4
TYPE F F F F
COUNT 1 1 1 1
WIDTH 1
HEIGHT 87
VIEWPOINT 0 0 0 1 0 0 0
POINTS 87
DATA ascii
3.3358798 0.59866154 0.073006362 336
3.2335546 -0.3441909 0.080423124 350
3.2581975 -0.22184224 0.081406586 332.14288
3.2657456 -0.088972323 0.070853792 343.85715
3.2749143 0.061252069 0.074424788 345.75
2.3339138 0.23316175 0.082369059 467.66669
2.4596729 0.27077386 0.12648791 365.5
3.2935979 0.19545335 0.079438515 350.20001
3.3021336 0.25490528 0.061593197 342.33334
2.4992011 0.38392553 0.069213599 404.09091
2.5618308 0.32714593 0.12658572 457
2.7643008 0.35449007 0.051526725 607
3.36692 0.37304676 0.066195726 269.5
2.6734281 0.4678005 0.065045089 667
3.2308359 -0.34329543 0.21199867 355.66669
3.2496378 -0.21024659 0.20917882 346
3.2664433 -0.076022707 0.20727897 367.33334
3.2727733 0.066450402 0.20689152 371.33334
3.3715899 0.043152187 0.16554987 257
2.4781392 0.27365571 0.23261726 418.33334
3.2875271 0.21529473 0.20694821 367.5
2.4930327 0.35996258 0.22825579 460.09091
2.5634742 0.41924861 0.28154165 467
3.3350465 0.32053888 0.20513032 310
3.2311215 -0.34251758 0.35023221 356
3.2609169 -0.20928402 0.34753621 331
3.2693005 -0.055894766 0.34632707 342.75
2.7971065 0.10980178 0.39877394 398.75
2.928473 0.086952366 0.41549826 505
3.0731292 0.046565384 0.34976214 355
3.2775493 0.095544025 0.33434102 353
2.5264983 0.2765761 0.36019862 395.5
2.6445923 0.23744765 0.42628348 385.85715
2.7384281 0.1807275 0.3730011 359.60001
3.2901516 0.23118411 0.31165519 367
2.515379 0.3560299 0.38956007 432
2.5666499 0.40346515 0.39025211 468
3.2403736 -0.35785186 0.49394813 331
3.2789712 -0.20851789 0.49196243 316.5
3.0631371 -0.017632795 0.58512318 411
3.2957768 -0.072352059 0.49091303 312
3.3083744 -0.039510563 0.49126667 310
2.7850671 0.11236228 0.53611791 366.5
2.8580828 0.050099485 0.54979235 310.33334
3.0445888 0.055019513 0.51614916 433
3.174705 0.061150048 0.45152682 415
2.6542826 0.25805151 0.50170624 407.5
2.7637017 0.21212004 0.54225773 373
2.8716376 0.21255527 0.57410997 391
2.5230837 0.33211625 0.4982231 447
2.5520904 0.33398595 0.49953175 389
2.7217669 0.35685441 0.56818449 359
2.8759408 0.38112015 0.57959998 350.33334
3.0292683 0.47401059 0.55910611 397
3.260823 -0.35691422 0.64167231 314
3.2775843 -0.2062476 0.63898933 314.75
2.910233 -0.013652986 0.63917035 419
3.0446153 -0.017567979 0.65185803 381
3.2956254 -0.093194693 0.63887846 308
3.3015704 -0.015891956 0.60177463 311
2.8391864 0.044741459 0.63256979 377
2.8999372 0.08915519 0.67557961 448.14288
2.8239491 0.24472383 0.69742644 577
2.8823256 0.20863289 0.6665014 489.57144
2.8768055 0.36458209 0.67586952 436.80002
2.9003937 0.45135647 0.68234986 463
3.2783604 -0.35554013 0.79153538 307.75
3.290731 -0.22253117 0.77653718 315
3.3284702 -0.19751051 0.80062336 296.20001
3.2960582 -0.064295553 0.86044633 243.5
3.3136461 -0.048686955 0.78395945 309.85715
2.8193462 0.12408891 0.81799483 3439
2.8973312 0.07877291 0.80672079 445
2.83584 0.22466822 0.79843658 996.60004
2.8751068 0.21571992 0.82972145 491
2.8191016 0.37729016 0.76489806 2209
2.8782756 0.38367462 0.80567145 785.5
2.9439981 0.13245723 0.9030931 329
2.8246393 0.27616978 1.0045826 341
2.9134681 0.26527828 0.95308733 315
2.8183327 0.32478783 0.98598516 323
2.9275284 0.37792146 0.97227067 292.33334
2.7987261 0.25954339 1.1099386 341
2.8616505 0.26714838 1.0712856 302
2.7838354 0.34771305 1.0873477 422.57144
2.9249415 0.41775733 1.0968275 311
2.9419556 0.34184286 1.2107639 263
