# .PCD v0.7 - Point Cloud Data file format
VERSION 0.7
FIELDS x y z intensity
SIZE 4 4 4 4
TYPE F F F F
COUNT 1 1 1 1
WIDTH 1
HEIGHT 76
VIEWPOINT 0 0 0 1 0 0 0
POINTS 76
DATA ascii
6.7013183 -1.9700708 0.11289972 62
4.9086871 -0.67406487 0.060125291 1765
4.9816852 -0.6186409 0.053845286 303
4.9384785 -0.55330467 0.056037843 321
4.9729323 -0.49574915 0.052747667 313
4.8330736 -0.3596231 0.061437368 645
4.9707069 -0.43651038 0.052206814 311
4.6378551 -0.29320464 0.075047076 307
4.6595507 -0.23025212 0.07302016 323
4.6530066 0.27510473 0.073805511 319
4.6349635 0.33402216 0.075609148 301
4.9447389 -0.67084676 0.16469032 1945
5.0023518 -0.64038128 0.2350229 813.66669
5.0051961 -0.52666962 0.21452892 314
4.978476 -0.40160459 0.21350873 955
4.6492438 -0.2876389 0.17385304 325
4.6669497 -0.25196409 0.24101147 317.66669
4.8481021 -0.17425108 0.26955664 295
5.0196543 -0.037392348 0.26449996 422
5.0030589 0.083776668 0.26503962 452
4.6690631 0.28185141 0.22413504 313
4.8550334 0.17612118 0.26938462 297
4.6624928 0.32635444 0.22463781 315
5.0016437 -0.645495 0.38496828 1008
5.0305147 -0.5258742 0.38203773 318
4.9458437 -0.4123382 0.38020366 1109
4.9505892 -0.37999216 0.37966436 1917
4.7416744 -0.26388037 0.37880442 285
4.936832 -0.17151441 0.3773582 265
4.8968835 -0.13939239 0.37727022 289
4.9853139 -0.037109688 0.37664932 307
4.9299483 0.098141171 0.37697238 299
4.9845119 0.066553831 0.37670952 309
4.7474389 0.2925595 0.37912041 279
4.8019843 0.21294382 0.37809497 295
4.9513559 0.18431509 0.37740815 291
4.6815429 0.3179827 0.37967074 313
5.0275626 -0.64605725 0.49999982 571
5.0191855 -0.52215445 0.49656445 320
4.9647169 -0.39572296 0.49282345 1824
4.8896866 -0.25891858 0.48920077 283
5.2057838 -0.17496403 0.49498308 307
4.9247422 -0.044959661 0.48841959 2551
5.0402231 -0.088996187 0.49107423 330
4.9274211 0.070705332 0.48854536 2175
4.9610257 0.093037672 0.48933905 1247
5.0320501 0.19200745 0.49147779 2387
5.1448154 0.22246979 0.49412167 307
5.0638232 -0.64686656 0.65782726 329.66669
5.1515064 -0.65597999 0.74274302 303
5.0645647 -0.52336752 0.67385817 300.5
5.0728955 -0.40194923 0.67134607 310.5
5.088613 -0.15841416 0.72729063 303
5.1659036 -0.15947418 0.67243218 275
5.3027358 -0.22876006 0.61991423 433.5
4.9450617 -0.033115044 0.60236198 1567
5.020834 -0.037995338 0.68310517 960.33337
5.0355005 0.082810186 0.6649515 870.5
5.0496302 0.20135592 0.68596596 297
5.1311746 0.21532948 0.61193979 319
5.1579065 -0.65985817 0.86431903 281
5.1165953 -0.5327239 0.85596275 267
5.1486869 -0.41045505 0.85547417 289
5.1381874 -0.15968986 0.8501842 293
5.0196896 -0.043894388 0.83828992 1621
5.2029858 -0.030522447 0.85555583 281
5.03021 0.07717859 0.83940709 1493
5.209209 0.090378977 0.85635847 289
5.1617737 0.20726013 0.85293025 281
5.093955 -0.02436091 0.96360672 287
5.2079453 -0.050878607 0.97722501 267
5.1987076 0.074070551 0.97622085 281
5.0182776 -0.030345883 1.1469321 294.33334
5.1062818 -0.054917082 1.0830784 263
5.0519276 0.063492917 1.1326137 288
5.3094487 0.10243331 1.1124427 334
