# .PCD v0.7 - Point Cloud Data file format
VERSION 0.7
FIELDS x y z intensity
SIZE 4 4 4 4
TYPE F F F F
COUNT 1 1 1 1
WIDTH 1
HEIGHT 74
VIEWPOINT 0 0 0 1 0 0 0
POINTS 74
DATA ascii
6.5796289 -1.909909 0.11718571 326
4.9271727 -0.66450787 0.058600664 1929
4.9594183 -0.5435499 0.054401278 316.33334
4.688755 -0.33697721 0.071724117 445
4.9611511 -0.42027733 0.052725673 345
4.6309395 -0.27641782 0.075417876 309
4.6606336 -0.22862829 0.072931409 323
4.6343527 0.28561977 0.075241148 321
4.6080213 0.3461206 0.077682495 327
4.9395046 -0.65787899 0.16469598 1535
4.9933262 -0.62483686 0.23515621 425.66669
4.9997621 -0.51621544 0.21458727 310.5
4.8770223 -0.37712026 0.21790302 745
4.9681931 -0.38976645 0.21375874 363
4.6373119 -0.27058738 0.17429352 325
4.6813097 -0.24616387 0.24025926 316.33334
4.8635144 -0.16310446 0.26907909 293
5.0060263 -0.055183355 0.2648825 295
5.1472969 -0.00062259083 0.26109517 483
4.9717398 0.076447509 0.26583886 287
4.6767826 0.29407883 0.22401497 321
4.8816376 0.20934328 0.26891428 271
4.6463265 0.34260815 0.17456478 321
4.683526 0.33891404 0.27552372 309
5.0178356 -0.63388532 0.38459828 428
5.0305533 -0.51604003 0.38183862 317
4.987709 -0.3859008 0.37963182 1206
4.7352352 -0.25438046 0.37871525 286
4.9502454 -0.16010322 0.37724096 271
4.9211407 -0.065297842 0.37696052 305
4.9817233 -0.049302462 0.37667692 303
4.9226804 0.1100596 0.37704426 295
4.9652772 0.081318475 0.37680906 315
4.790916 0.21413034 0.37813944 299
4.9017119 0.19897147 0.37767243 287
4.625658 0.32797402 0.37999892 343
4.7466531 0.30435339 0.37927318 273
5.0432673 -0.63431132 0.4999637 320
5.0331435 -0.51388001 0.49665242 319
5.0136633 -0.3862462 0.49365163 1200
4.9079814 -0.26294854 0.48963082 281
5.1952209 -0.16211657 0.49466616 295
4.9337564 -0.043298099 0.48860663 2471
5.0194921 -0.072689265 0.49057919 317
4.9281707 0.085565083 0.48861516 2331
5.0067472 0.10617122 0.49036312 751
5.0882654 0.2114699 0.49283236 451
5.1387391 0.22402158 0.49401003 305
5.1435957 0.35972312 0.49586725 648
5.0970831 -0.63687581 0.65902013 308.33334
5.1165085 -0.63937396 0.73979306 307
5.0526228 -0.51068878 0.65316808 298.33334
5.1075673 -0.52295154 0.73546827 303
5.0397849 -0.38657647 0.61042035 311
5.169888 -0.39521119 0.7365337 283
5.2101812 -0.21765377 0.61562669 425.5
5.0243583 -0.0511913 0.67591864 989.40002
5.1898146 -0.14468765 0.67408681 296
5.0656977 0.097086132 0.66650242 840.5
5.01859 0.20926768 0.66497421 298
5.1066079 0.21856025 0.67009926 304
5.1688757 -0.64567977 0.86477411 273
5.1116138 -0.51430112 0.8549189 291
5.1358042 -0.39738002 0.85395366 299
5.0460701 -0.087646522 0.84106767 899
5.2029715 -0.086105131 0.85584605 280
5.0409441 0.08947508 0.84048283 893
5.2108855 0.10593583 0.85660756 273
5.1051531 0.20313576 0.84755015 303
5.0979362 -0.022605486 0.96407723 291
5.1594424 -0.033063244 0.97140944 245
5.2104139 0.086732961 0.97767848 285
5.0164213 -0.02704113 1.1271501 287
5.060605 0.075609319 1.1342516 266
