# .PCD v0.7 - Point Cloud Data file format
VERSION 0.7
FIELDS x y z intensity
SIZE 4 4 4 4
TYPE F F F F
COUNT 1 1 1 1
WIDTH 1
HEIGHT 102
VIEWPOINT 0 0 0 1 0 0 0
POINTS 102
DATA ascii
4.5376606 -2.3152022 0.045007154 293
3.1334617 -0.9671483 0.029540062 1636.3334
3.1713891 -0.95857275 0.088400543 783.33337
3.1303096 -0.76721036 0.066800237 2191
3.1825728 -0.83604348 0.086544245 718.25
2.8718691 -0.60780013 0.067067683 507
3.0085688 -0.73411024 0.022299826 1153
3.2021799 -0.71637273 0.089624316 564
2.8321934 -0.55579031 0.062243283 541.66669
2.9186387 -0.51220459 0.094983064 438.75
2.9453192 -0.053638991 0.081209026 552.33337
3.0067258 -0.024676917 0.1316908 357
3.280817 -0.023767248 0.041606605 597
2.9433217 0.041582312 0.0815171 510.77777
3.1908901 -0.95841265 0.23202781 1066
3.2081497 -0.82358575 0.22573918 913.75
2.9235134 -0.60242033 0.2371791 538
3.2283869 -0.7237305 0.22113299 503
2.9072695 -0.54672402 0.21341129 512.11115
3.0958772 -0.50632542 0.25610259 307
3.3845706 -0.47413298 0.24045631 444
3.4462562 -0.30855784 0.23439151 507
3.4787223 -0.15882504 0.15823245 90
2.989876 -0.046165846 0.22405 557
3.0613844 -0.031352479 0.25138831 305
3.2470615 -0.030155342 0.17454526 619
3.3656299 -0.14900488 0.2367661 332
2.9689994 0.044250354 0.22539398 530
3.2121453 -0.95390218 0.37402305 1077.3334
3.2317019 -0.82251793 0.36686203 923.5
3.2501607 -0.72955346 0.36219528 502
2.9440248 -0.54983705 0.35738546 458.77777
3.0378449 -0.48490703 0.39021742 329
3.2115183 -0.47463584 0.35320386 316
3.1381979 -0.41472924 0.35345328 374
3.2082164 -0.36658737 0.36851782 374
3.3177829 -0.35188827 0.31283221 549
3.4953036 -0.44614646 0.30988944 471
3.104466 -0.20934784 0.34955662 866
3.2233903 -0.2369744 0.34853578 383.66669
2.9727476 -0.040944859 0.31861934 517
3.067327 -0.068795756 0.38208696 372.5
2.9859376 0.02852935 0.36967716 509.39999
3.0582395 0.065126315 0.38313621 308.33334
3.2230487 -0.9457342 0.50952685 1066
3.2398233 -0.82733315 0.52040976 979.00006
3.0798032 -0.61583048 0.48726434 381
3.2620435 -0.73752421 0.52267241 495
3.4459755 -0.70334953 0.55287391 363
3.0841892 -0.54816175 0.49601352 333.5
3.2324443 -0.49518436 0.49817216 355.5
3.257786 -0.37898415 0.48989093 469.85718
3.3137841 -0.44082269 0.53592843 821
3.1083908 -0.16776446 0.45105821 325
3.2646358 -0.25959727 0.49964261 1007.8
3.3038781 -0.21219866 0.45572162 367
3.5247424 -0.19512758 0.53923899 410
3.1195688 -0.074619368 0.48506293 335
3.1565635 -0.047829024 0.59174049 383
3.4133687 -0.12875232 0.49492401 941
3.5356212 -0.1396022 0.53904074 313
3.0989428 0.02810966 0.51851958 241
3.2249618 -0.96202773 0.67592168 1276.5
3.2313547 -0.84965152 0.66151184 335
3.3517575 -0.79687691 0.71073997 301
3.2435651 -0.68685615 0.65647191 358
3.4141097 -0.65502775 0.66674554 292
3.2431428 -0.52654368 0.64005494 388.39999
3.3119311 -0.49490818 0.61320448 747
3.266427 -0.34095842 0.6417802 1603
3.3261628 -0.40499097 0.64852262 399.66669
3.2668533 -0.23038909 0.63840449 421
3.338726 -0.2366609 0.64457506 343.66669
3.2509074 -0.098934323 0.64731151 365.66669
3.4017606 -0.1227496 0.64799893 855
3.2534528 -0.94161618 0.79136795 863
3.3460383 -0.94583338 0.85414171 300.33334
3.2709603 -0.80669445 0.78101647 1004
3.3183784 -0.81556201 0.86405569 365
3.2869065 -0.73836213 0.7772944 319
3.3260434 -0.74456233 0.82055604 351
3.291342 -0.49459094 0.8368876 2681
3.3289351 -0.50167197 0.79231304 383
3.2795286 -0.3929311 0.83015895 3236
3.3351886 -0.38395178 0.7877928 1120.3334
3.2946253 -0.18879844 0.75152761 385
3.3540318 -0.24135272 0.80325615 1455.2858
3.348058 -0.1091293 0.78702193 353.20001
3.4044557 -0.51412421 0.93050694 333
3.3835573 -0.40801764 0.92136538 363
3.4706836 -0.36514679 0.97240871 318
3.4223564 -0.29828382 0.92310172 335
3.4776101 -0.24445057 0.9561547 281
3.6079571 -0.20472795 0.95125812 383
3.3787966 -0.13174553 0.91158479 375
3.2871921 -0.38361406 1.1642994 317
3.3788688 -0.38842878 1.0923176 300.33334
3.2792606 -0.29247499 1.1802114 321
3.3585794 -0.27092543 1.0944197 292.5
3.2893202 -0.37033355 1.2530197 323
3.2577457 -0.29231638 1.2398982 397
3.4593546 -0.24631645 1.2248534 281
