# .PCD v0.7 - Point Cloud Data file format
VERSION 0.7
FIELDS x y z intensity
SIZE 4 4 4 4
TYPE F F F F
COUNT 1 1 1 1
WIDTH 1
HEIGHT 82
VIEWPOINT 0 0 0 1 0 0 0
POINTS 82
DATA ascii
6.435524 -1.8123695 0.12120366 252
4.932188 -0.67884219 0.0584777 1671
4.971096 -0.61496967 0.054565072 317
4.9436808 -0.48770654 0.054783165 319
4.9670439 -0.55807906 0.054014027 309
4.8597836 -0.36349106 0.059530854 951
4.9619727 -0.43344167 0.052809358 319
4.6373644 -0.25951347 0.07483831 316
4.6411643 0.27268633 0.074647248 325
4.6208696 0.33521008 0.076645195 309
4.940176 -0.66731197 0.21974397 1910
4.9982023 -0.62265301 0.21652728 313
5.0076032 -0.52518165 0.21433946 307.5
4.9263935 -0.37436599 0.2152718 1759
4.9947767 -0.42541647 0.21331075 330
4.6335921 -0.28203094 0.1745829 329
4.6713166 -0.25163418 0.24078894 316.33334
4.8260603 -0.17513855 0.2701475 283
4.9739971 -0.058355533 0.26573581 287
5.1022944 -0.013164587 0.26228744 541
5.0110569 0.084347889 0.26482806 491
4.691103 0.28157544 0.22315922 311
4.8218861 0.17959148 0.27028728 289
4.6673074 0.32899332 0.22449464 311
5.0046701 -0.64545935 0.38495469 1043
5.0326862 -0.52433246 0.38199872 315
4.9611974 -0.39701492 0.37990078 1757
4.6851902 -0.24506071 0.37877023 313
4.8063407 -0.28020251 0.37878054 273
4.9897308 -0.17523865 0.37722749 275
4.8819613 -0.13653511 0.37729758 309
4.9808149 -0.035576619 0.37666193 299
4.9229865 0.096241198 0.37698478 309
4.9894729 0.069280885 0.37670296 307
4.7658162 0.25063598 0.37861291 282
5.0041189 0.19130383 0.37730372 299
4.6384916 0.31713742 0.37980282 331
5.0281162 -0.64566481 0.49999994 650
5.02633 -0.52114505 0.49668398 318
4.9801793 -0.39682704 0.49315754 1771
5.3086691 -0.30405349 0.49847019 534
4.8866057 -0.26027727 0.48915327 265
5.2466826 -0.17828192 0.49586743 283
4.9357224 -0.046810184 0.48865545 2547
5.0232792 -0.085214376 0.49070486 315
4.945374 0.073602825 0.48893398 1489
4.9860506 0.091765232 0.48986149 685
5.0548244 0.19786692 0.49200678 1667
5.1618776 0.22141072 0.49446803 309
4.8114634 0.32300237 0.48846143 245
5.0553937 -0.64468259 0.65719724 332.33334
5.1235809 -0.65406191 0.74079072 309
5.0638542 -0.5215292 0.65372312 295
5.1111879 -0.52652556 0.73581886 297
5.0396786 -0.39990869 0.6106807 318
5.1275082 -0.40531129 0.7338326 295
5.1674328 -0.15893255 0.69251382 285
5.2961693 -0.23023328 0.6196335 442.5
4.94909 -0.028342117 0.60253727 1967
5.0278263 -0.037616163 0.68347901 977
5.0214639 0.083709389 0.64464939 1042.3334
5.1025114 0.082341209 0.72775209 291
5.0465088 0.20391862 0.68606234 297
5.1751671 0.2154444 0.61392879 319
5.1601896 -0.65786684 0.86445016 287
5.1121969 -0.5272612 0.85538059 291
5.1346445 -0.411084 0.85417914 299
5.0848427 -0.16132502 0.8451736 319
5.1816092 -0.15704422 0.85424906 281
5.0047994 -0.038944643 0.83687216 1825
5.2119341 -0.032404169 0.85640377 269
5.019289 0.075245984 0.83836782 1381
5.206171 0.093055435 0.85608661 293
5.089591 0.20572573 0.84611928 249.5
5.1813989 -0.1692078 0.97491884 390
5.0780582 -0.026048854 0.96171939 289
5.1662917 -0.045497231 0.97225577 253
5.1709337 0.071850434 0.97290891 281
5.0090494 -0.029822884 1.1456363 282.33334
5.1033669 -0.050019048 1.0826423 277
5.0460176 0.061668765 1.131723 289
5.1065087 0.1009495 1.0833685 398
