# .PCD v0.7 - Point Cloud Data file format
VERSION 0.7
FIELDS x y z intensity
SIZE 4 4 4 4
TYPE F F F F
COUNT 1 1 1 1
WIDTH 1
HEIGHT 76
VIEWPOINT 0 0 0 1 0 0 0
POINTS 76
DATA ascii
6.4377222 -1.8012246 0.12063187 400
4.9156213 -0.66783416 0.059507489 1959
4.9783087 -0.6136291 0.054014862 303
4.9646931 -0.5201239 0.053680092 320
4.7361193 -0.34555045 0.068358302 483
4.9780679 -0.43266335 0.051627696 319
4.6483536 -0.28549296 0.07422328 307
4.6835427 -0.22982123 0.071277022 313
4.6625676 0.28201777 0.073163867 319
4.5958505 0.33535874 0.078466356 323
4.945744 -0.66374075 0.16449499 1737
4.9872227 -0.63292384 0.23541746 538.33337
5.0030427 -0.52093017 0.21450911 313
4.8514862 -0.35821286 0.16446024 393
4.9789472 -0.40519214 0.23182008 425
4.6378179 -0.27853492 0.17433965 329
4.6755009 -0.24849525 0.24067828 313
4.8363552 -0.16731569 0.26982528 281
4.9730401 -0.054799005 0.26575398 291
4.9938841 0.066512279 0.26522803 295
4.6711555 0.28827256 0.22418305 314
4.8287239 0.18374848 0.2701335 285
4.6631756 0.33076423 0.22489479 308
5.0172853 -0.6418137 0.384801 560
5.0276213 -0.52004361 0.38192967 316
4.9691057 -0.39234757 0.37980017 1424
4.7574539 -0.25973612 0.37870607 287
4.989037 -0.16675898 0.37717074 285
4.9064951 -0.07403814 0.37702999 301
4.9957223 -0.049448948 0.37663734 303
4.9218073 0.10454336 0.3770225 297
5.0144367 0.071881652 0.37663895 295
4.7764559 0.2569387 0.37865174 283
4.9909663 0.19477986 0.3773703 339
4.6523046 0.32021424 0.37979949 337
5.0451932 -0.64254761 0.50023568 329
5.0525713 -0.52029586 0.49718529 312
4.9950686 -0.39267796 0.49338755 1334
4.852849 -0.25513059 0.48838902 255
4.9735956 -0.27984715 0.49120516 259
5.2250109 -0.16867104 0.49533963 289
4.9327569 -0.043288816 0.48858553 2555
5.0263214 -0.082157537 0.49075994 311
4.9473381 0.075826257 0.48898315 1251
5.0338573 0.10118244 0.49091113 311
5.1176739 0.2138322 0.4934721 472.5
4.8113108 0.32513037 0.48849112 253
5.0619144 -0.64116502 0.65748727 319
5.1366076 -0.64708138 0.74142146 299
5.0523543 -0.51637393 0.65318006 296.33334
5.1155009 -0.52380919 0.73603475 291
5.0505757 -0.39544261 0.61107767 338
5.1413836 -0.40100613 0.73469388 291
5.0436673 -0.20966253 0.6667732 395
5.2134361 -0.15619346 0.67542493 265
5.2801218 -0.1641001 0.61820138 267
4.9411206 -0.024372114 0.60216987 2011
5.0298519 -0.033947952 0.68356431 933
5.0471354 0.088819779 0.66542661 800
5.027257 0.20565392 0.6652056 303
5.1097898 0.21464932 0.67013943 296
5.139781 -0.65283155 0.86238027 307
5.1156349 -0.52333069 0.85557461 295
5.1462851 -0.40344885 0.85507876 299
5.0988483 -0.15956123 0.84647578 309
5.0207596 -0.035125505 0.83836943 1875
5.2118454 -0.089098841 0.85670853 269
5.0241241 0.083670065 0.83886528 1475
5.1981635 0.095181786 0.8553434 303
5.1071429 0.20321934 0.84773844 295
5.2271295 -0.16850191 0.98033994 444
5.1534815 -0.032200731 0.97070158 274
5.2164693 0.081160702 0.97836792 297
5.0506997 -0.031220851 1.1326108 289
5.0371413 0.067011751 1.1883928 275
5.1574941 0.074424043 1.0905049 259
