# .PCD v0.7 - Point Cloud Data file format
VERSION 0.7
FIELDS x y z intensity
SIZE 4 4 4 4
TYPE F F F F
COUNT 1 1 1 1
WIDTH 1
HEIGHT 77
VIEWPOINT 0 0 0 1 0 0 0
POINTS 77
DATA ascii
6.1745625 -1.5683525 0.12611079 286
4.9275961 -0.66864866 0.058640122 1939
4.9624252 -0.61201423 0.055155456 319
4.9645243 -0.52157825 0.053712785 318
4.7361846 -0.34469804 0.068345606 481
4.9522023 -0.4307369 0.053491652 317
4.6389961 -0.25740442 0.074703634 317
4.6585078 0.28299505 0.073466241 317
4.6257291 0.33707839 0.076309025 311
4.9389458 -0.66187102 0.16480464 1801
4.9865675 -0.63286936 0.23561203 573
4.9882278 -0.52074039 0.21503505 316
4.8147097 -0.35446858 0.16626096 399
4.9806108 -0.40527746 0.23184648 439.66669
4.6401062 -0.25637299 0.17403942 329
4.6684704 -0.25689161 0.2750085 316
4.8273964 -0.16612405 0.27005565 285
4.9840035 -0.057602707 0.26546961 289
5.1742783 -0.009440721 0.26038349 491
4.9729061 0.065341964 0.26578003 299
5.3038049 0.12059267 0.2572 564
4.6765504 0.28985888 0.22374257 317
4.8477187 0.18409501 0.26963115 303
5.2644968 0.24050108 0.2589646 463
4.6716857 0.33080611 0.2244575 315
5.0138588 -0.64105231 0.38479665 612
5.0344181 -0.52223945 0.38194937 316
4.9641361 -0.39174026 0.37980834 1434
4.7434068 -0.26021257 0.37875497 289
5.0240469 -0.16709971 0.37706947 291
4.9094853 -0.074486315 0.37702337 303
4.991694 -0.05207482 0.37665427 311
4.8947892 0.10504258 0.37710267 293
4.9984517 0.070758767 0.37668145 307
4.8020244 0.21209034 0.3780871 289
5.0349474 0.19615509 0.37724912 353
4.7265787 0.31173351 0.37944025 292
5.0382938 -0.64135826 0.50006855 337
5.0444593 -0.52087408 0.49703842 317
4.994585 -0.39243716 0.49337381 1425
4.8786573 -0.25916705 0.48897451 265
4.9775872 -0.28008962 0.49129117 428
5.1970649 -0.1667951 0.49473864 279
4.9417291 -0.045999549 0.48878062 2511
5.0343075 -0.082703926 0.4909313 312
4.9726009 0.088235512 0.48956698 739
5.0866385 0.20280537 0.49271768 843
5.1668296 0.22255464 0.49458283 303
5.0397205 0.34082177 0.49343455 571
5.0721502 -0.642537 0.65788484 318.33334
5.126842 -0.64486539 0.74068391 305
5.0607915 -0.51889753 0.67341727 301
5.0530806 -0.39544746 0.61118972 344
5.1210222 -0.39910486 0.73324817 292
5.0749011 -0.15037255 0.72626561 431
5.1719732 -0.19692004 0.65348601 390.66669
5.2931318 -0.16358812 0.61878663 263
5.0071568 -0.032967441 0.66322553 1222.5
5.0478764 0.088955715 0.66554642 833.5
5.0392795 0.20461987 0.66611588 294
5.1557617 0.21509391 0.67233098 298
5.1505713 -0.65473711 0.86344498 303
5.103734 -0.52227372 0.85443819 287
5.1185808 -0.40025476 0.85241455 299
5.0878806 -0.15986471 0.84544551 313
5.0028381 -0.035209179 0.83667845 2005
5.2073774 -0.089614183 0.85628325 272
5.0111637 0.084534906 0.83764738 1701
5.2011676 0.09433344 0.85562181 301
5.088357 0.1997546 0.84592795 313
5.1397729 -0.16619731 0.96994424 396
5.1495018 -0.033595987 0.97023082 276
5.1876569 0.081810944 0.97494674 289
5.0308146 -0.028191468 1.1489325 291
5.1232023 -0.046437223 1.0854716 273
5.0697918 0.085082352 1.1358107 290.5
5.1168962 0.074902274 1.084692 263
