# .PCD v0.7 - Point Cloud Data file format
VERSION 0.7
FIELDS x y z intensity
SIZE 4 4 4 4
TYPE F F F F
COUNT 1 1 1 1
WIDTH 1
HEIGHT 76
VIEWPOINT 0 0 0 1 0 0 0
POINTS 76
DATA ascii
6.3739829 -1.7383692 0.12167513 319.5
4.9098816 -0.66567928 0.059893131 1951
4.9762478 -0.61401206 0.054172039 307
4.9683084 -0.5238862 0.053464025 316
4.7401948 -0.34457847 0.068052828 481
4.9601464 -0.43149304 0.052920938 321
4.6264272 -0.2584303 0.075625718 326
4.6604719 0.28354242 0.073327959 325
4.6098175 0.33584705 0.077454984 315
4.9390054 -0.66144741 0.16479307 1771
4.9938316 -0.63381863 0.23526768 559
5.0031853 -0.52430725 0.21453042 312
4.8356547 -0.35566577 0.16522497 391
4.9822669 -0.40538904 0.23164093 410.33334
4.6731133 -0.25960317 0.22373934 317.5
4.851388 -0.16656461 0.26942164 293
4.9930158 -0.056372292 0.26522887 289
5.1262822 -0.014608118 0.2616542 539
4.9689078 0.065286413 0.26588559 297
4.6894922 0.29113817 0.22345629 312
4.8548999 0.1795909 0.26941061 301
4.6662073 0.33039108 0.22471571 313
5.0113907 -0.64065653 0.3847976 588
5.0277591 -0.52344358 0.38199869 318
4.9586716 -0.3910808 0.37981719 1371
4.6952791 -0.24372345 0.37872458 307
4.832212 -0.28308451 0.37873179 281
5.0130687 -0.16626669 0.37709635 297
4.9119749 -0.077108838 0.3770183 300
4.9927087 -0.050751705 0.3766486 305
4.9017773 0.10563768 0.37708503 295
4.9884534 0.070609137 0.37670964 299
4.7959709 0.21308839 0.37811458 291
5.0331497 0.19112924 0.37721545 345
4.7260637 0.31194702 0.37944469 297
5.0397949 -0.64144969 0.5000999 333
5.0462427 -0.52302551 0.4971227 314
4.9896231 -0.3917774 0.49326101 1359
4.8937039 -0.25870904 0.48928183 269
5.1920848 -0.16616467 0.49462938 289
4.9257464 -0.044532951 0.48843986 2523
5.0307951 -0.085294351 0.49085996 311
4.9760952 0.088488013 0.48964182 765
5.0518827 0.19639848 0.49193215 1681
5.1497884 0.22315504 0.49423236 291
4.8542366 0.32756799 0.48941231 259
5.0728078 -0.64261645 0.65798086 317
5.1496444 -0.64743209 0.74231422 299
5.0759683 -0.52245879 0.67436647 291.5
5.0531001 -0.39520818 0.61118591 324
5.128994 -0.39952958 0.73380721 300
4.892705 -0.26263776 0.60175925 394
5.1760044 -0.15569681 0.6731528 275
5.2721806 -0.16243868 0.61782855 259
4.9390917 -0.029588243 0.60208505 2053
5.0366058 -0.064818069 0.69410408 827.5
5.0498648 0.089206211 0.66572917 833
5.0378685 0.20277309 0.66585052 304
5.1388836 0.21256545 0.67137104 302
5.1347551 -0.65284663 0.86191976 303
5.1130619 -0.52848464 0.85549974 289
5.1206031 -0.39997053 0.85259652 301
5.1187267 -0.16088821 0.84836143 293
5.0167346 -0.040358514 0.83800179 1731
5.1944475 -0.088573568 0.85505944 273
5.0350451 0.085401088 0.83990461 1521
5.2240615 0.0947714 0.85778368 297
5.0853162 0.20096545 0.84565663 311
5.1455498 0.21365513 0.85148424 294
5.184432 -0.16772145 0.97526258 434
5.0879998 -0.023887865 0.96289784 281
5.2020245 -0.047189716 0.97650921 269
5.188642 0.082279667 0.97506624 303
5.0340943 -0.029031813 1.1494317 291.66669
5.1053324 -0.051366713 1.0829287 253
5.0627441 0.081642412 1.1153772 292.66669
