# .PCD v0.7 - Point Cloud Data file format
VERSION 0.7
FIELDS x y z intensity
SIZE 4 4 4 4
TYPE F F F F
COUNT 1 1 1 1
WIDTH 1
HEIGHT 85
VIEWPOINT 0 0 0 1 0 0 0
POINTS 85
DATA ascii
4.7976661 -1.9253006 0.10957617 222
3.133173 -0.65591514 0.065207385 2159
3.1757889 -0.60812271 0.090265155 500
3.1763597 -0.51793844 0.088826045 511
2.7867534 -0.31324285 0.048996873 529
2.9009247 -0.33981335 0.087241054 491
3.0950615 -0.36671263 0.12566981 1977
3.1730957 -0.42683491 0.087713942 523
2.8269918 -0.25467703 0.085014217 506.60001
2.8732173 -0.24352823 0.14539805 577
2.8424482 0.29374522 0.094775528 576
2.8771729 0.28424132 0.090158246 485
2.8111534 0.36212865 0.066352561 535.40002
2.8662264 0.41495374 0.092110395 459
3.1821163 -0.63115954 0.22141197 1238.5
3.2002163 -0.51780713 0.21728379 492.25
2.8261647 -0.30412209 0.17876452 544
3.1246245 -0.37231725 0.18629816 2245
3.1959827 -0.40770942 0.22627553 1097.6667
2.8460953 -0.28340334 0.23484996 535
2.9011807 -0.23294167 0.23676236 477.80002
3.1422257 0.036799546 0.24738175 673
2.8856835 0.27016526 0.23216732 504
3.0453558 0.25088912 0.25378147 392
2.8344941 0.35089961 0.15028724 531
2.8798075 0.3375085 0.23374715 486
3.2293618 -0.63561273 0.35878617 635.5
3.2315073 -0.51854593 0.35487494 502.75
3.187968 -0.39645821 0.35207126 1579
2.9054368 -0.24486113 0.36796466 483
3.0372519 -0.15822084 0.40517592 350.33334
3.1057749 -0.060270078 0.35995382 329.66669
3.1046603 0.081046894 0.37259036 347.85715
2.9473538 0.25736904 0.37217543 479.39999
3.0322688 0.19060352 0.38372135 389.5
2.8856361 0.31816053 0.37404278 575.79999
3.2555542 -0.63512731 0.50474405 508
3.2296433 -0.51327002 0.49850526 460.5
3.1993077 -0.39420614 0.49359027 2025
3.2475915 -0.17079797 0.55053043 375
3.3418407 -0.18305571 0.45609921 835
3.1192513 -0.051304184 0.50264323 1033
3.2118762 -0.059574835 0.5335449 796
3.1038103 0.12541664 0.47341666 405.66669
3.2303538 0.074507922 0.54555124 770.42859
3.0939615 0.27124667 0.52140445 259
3.2251718 0.20326082 0.54996943 332.33334
3.3274097 0.2051854 0.45610327 309
3.2678094 -0.63150591 0.65475631 480
3.2026434 -0.50353634 0.64293683 375.25
3.2263315 -0.39550456 0.62782276 927.66669
3.3224444 -0.40214643 0.68582082 317
3.2795959 -0.17305057 0.63828748 401
3.3206604 -0.16898578 0.67926788 417
3.2510729 -0.057471085 0.70802921 838.25
3.2621133 0.091943279 0.70959562 772.75
3.3136117 0.13345046 0.60338807 433
3.2781172 0.20188698 0.67581195 422.33334
3.3040314 0.21085505 0.67847568 417
3.2890851 -0.63745576 0.77033764 485
3.3130512 -0.63644361 0.81096351 389
3.2396672 -0.49049369 0.77471203 359
3.3131104 -0.55849183 0.80590987 293
3.33218 -0.40798301 0.78815198 329
3.2879412 -0.17945765 0.7874136 404
3.3399708 -0.16371134 0.79409719 402
3.2322264 -0.066326566 0.8147856 2625
3.344017 -0.043447278 0.85514164 362.33334
3.2498207 0.067156896 0.84166592 2097.6667
3.3341253 0.10373215 0.8297407 366
3.2995772 0.19013245 0.89950591 437
3.3568449 0.21156287 0.80994403 351
3.3749819 -0.49915785 0.92481679 279
3.3216329 -0.18519212 0.90306938 379
3.2720141 -0.0023892394 0.99969947 310
3.3656907 -0.051591516 0.93376821 331.66669
3.5019455 -0.10308329 0.97025257 387
3.265377 0.033853993 1.0339453 325
3.3759804 0.082460761 0.95514745 322.20001
3.2581108 -0.055341747 1.134886 314.5
3.3534398 -0.057548445 1.053045 272
3.2441485 0.016322233 1.1307656 332.5
3.3476713 0.077151284 1.1221932 261
3.2089303 -0.046480216 1.2191226 337
3.2276974 0.021813348 1.2556787 342
