# .PCD v0.7 - Point Cloud Data file format
VERSION 0.7
FIELDS x y z intensity
SIZE 4 4 4 4
TYPE F F F F
COUNT 1 1 1 1
WIDTH 1
HEIGHT 75
VIEWPOINT 0 0 0 1 0 0 0
POINTS 75
DATA ascii
6.1168289 -1.5482675 0.1285162 330
4.9127216 -0.66696537 0.059706211 1965
4.9722009 -0.61420166 0.054472029 305
4.9313045 -0.48127818 0.055607021 331
4.9615712 -0.55334401 0.054347754 323
4.7580485 -0.34656948 0.066772699 453
4.9560947 -0.43199679 0.053221822 319
4.6304917 -0.28349248 0.075504959 309
4.6666527 -0.22810031 0.072491407 313
4.6426072 0.28157422 0.074610054 321
4.6257792 0.33642453 0.07629931 319
4.9270163 -0.66063106 0.16538906 1807
4.9877887 -0.6337992 0.23559074 584.33337
4.9969368 -0.51935536 0.21482773 313
4.8425765 -0.35683361 0.16489124 395
4.9792275 -0.40582418 0.23195389 456.33334
4.6736078 -0.25561616 0.22376697 315.5
4.8383846 -0.16653916 0.26976657 277
4.9840455 -0.054035254 0.26546144 273
4.9679146 0.064813137 0.26591074 283
4.6696005 0.28900272 0.22409347 318
4.8286886 0.18462548 0.27014029 285
4.6637678 0.3295511 0.2248753 312
5.0177298 -0.6422767 0.3848103 624
5.0386567 -0.52031851 0.38189158 317
4.9586115 -0.39179283 0.37982884 1514
4.7165728 -0.25651249 0.37879941 287
4.9291048 -0.16377249 0.37732786 267
4.8789892 -0.13557833 0.37730074 299
4.991847 -0.0308653 0.37662446 306
4.9087911 0.1051249 0.37706256 301
4.9874597 0.070139974 0.37671113 303
4.7200255 0.29792252 0.37927753 261
4.8749132 0.20474377 0.37780577 296
4.6813183 0.32108161 0.37971443 321
5.0490971 -0.64352977 0.50033861 336
5.029315 -0.51683587 0.49664238 311
4.9870682 -0.39233947 0.49321905 1576
4.8918285 -0.25643158 0.48921549 269
4.9506936 -0.2776041 0.49070114 271
5.2180481 -0.16751066 0.49518478 285
4.9357643 -0.042442046 0.48864734 2545
5.019804 -0.082290724 0.49062625 315
4.9383626 0.074367769 0.4887886 1985
4.9968548 0.10128298 0.4901315 659
5.0805874 0.20390561 0.49260104 635
5.1996183 0.22774877 0.49531978 295
4.9240899 0.33188948 0.49091679 756
5.084249 -0.64490771 0.65868783 310.33334
5.1178823 -0.64413369 0.74005318 311
5.0679965 -0.51716775 0.65411681 294.33334
5.1046901 -0.52173257 0.73523676 289
5.0712891 -0.39602837 0.65133613 309
5.1222587 -0.40226799 0.73340303 309
4.9267387 -0.26239258 0.60328853 416
5.0908542 -0.15087181 0.72738212 441
5.2196684 -0.15892199 0.65565902 267.66669
5.0069304 -0.030552089 0.6631074 1118.5
5.0593615 0.088833861 0.66618288 832.5
5.0505056 0.20986116 0.64718997 297.66669
5.1113954 0.2140775 0.72945201 295
5.1642594 -0.65749389 0.86480898 273
5.1167231 -0.52254236 0.85565054 293
5.1532869 -0.4033494 0.85573 301
5.1037784 -0.16106533 0.84695488 309
5.0396829 -0.034161244 0.84015304 1341
5.2108703 -0.087973766 0.85661054 274
5.071888 0.085398227 0.84337968 757
5.2151122 0.094138034 0.85693592 283
5.0981517 0.20373532 0.84689873 313
5.1599422 -0.031231221 0.97146785 265
5.1975894 0.08175724 0.97612709 283
5.0420623 -0.030239312 1.1312578 293.5
5.063755 0.068258978 1.1928546 291
5.1347151 0.074967556 1.0872449 257
