# .PCD v0.7 - Point Cloud Data file format
VERSION 0.7
FIELDS x y z intensity
SIZE 4 4 4 4
TYPE F F F F
COUNT 1 1 1 1
WIDTH 1
HEIGHT 62
VIEWPOINT 0 0 0 1 0 0 0
POINTS 62
DATA ascii
-0.61333346 -5.8626294 0.097776592 264
-0.59841681 -5.868361 0.033008128 284
-0.54633367 -5.8282986 0.12843677 122
-0.71085572 -5.6669035 0.071056604 258
-0.82243204 -5.5034051 0.1053099 280
-0.92706215 -5.2987895 0.14157493 298
-0.60859859 -5.8830252 0.24654096 352
-0.64609504 -5.7530761 0.26032639 214
-0.66612554 -5.6697049 0.16171101 384
-0.79395258 -5.4393196 0.22488183 185
-0.7163229 -5.4828048 0.25937784 121
-0.94407022 -5.3212061 0.28285861 328
-1.0940775 -4.9991846 0.28542271 258
-0.62659311 -5.8962574 0.31910479 279
-0.7211591 -5.7145 0.34425014 258
-0.73852706 -5.6820893 0.42430407 274
-0.8396039 -5.4819007 0.35377562 156
-0.94088441 -5.3367167 0.36831754 346
-0.78980827 -5.3640513 0.44276527 170
-1.0500236 -5.169055 0.36483327 266
-1.039903 -5.1326389 0.36919457 291
-1.1120955 -4.9056826 0.44914493 220
-1.0236856 -4.8808575 0.40433118 185
-0.61223316 -5.9512749 0.48099148 280
-0.57883739 -5.8763499 0.52255082 242
-0.69918656 -5.714098 0.54659855 324
-0.70314485 -5.6763563 0.54760325 285
-0.83208406 -5.4973574 0.50178206 326.66669
-0.93936443 -5.3197327 0.51211905 383
-1.0254363 -5.1366267 0.53195441 228
-0.69892764 -5.8758211 0.69541073 232
-0.56602454 -5.9106121 0.6698302 230
-0.82766807 -5.715322 0.7178067 292
-0.68042135 -5.7046747 0.68843675 390
-0.8121736 -5.5745049 0.61424518 426
-0.79859436 -5.5004702 0.6597876 288
-0.91316307 -5.3082976 0.63329339 255
-0.89263308 -5.2967076 0.72266185 258
-1.0143657 -5.1642933 0.69877732 197
-1.0873693 -4.9010057 0.66630113 222
-0.7824285 -5.6176476 0.81283677 180
-0.66368055 -5.6838546 0.79139036 224
-0.83330178 -5.4562855 0.81710911 236
-0.88416362 -5.3149881 0.82214087 258
-0.9693377 -5.123714 0.83237654 272
-1.1019635 -5.0132446 0.80696666 354
-0.76963568 -5.6990976 0.92718476 326
-0.64675498 -5.6687245 0.90024489 164
-0.82794994 -5.5299368 0.92965114 312
-0.93706638 -5.1522436 0.98616529 244
-1.0737053 -4.9785419 0.94995207 314
-0.76512504 -5.7061357 1.1738589 302
-0.88944304 -5.5516911 1.1855804 308
-0.85843754 -5.5098095 1.051964 250
-1.0662264 -5.0027361 1.0578117 284
-1.0428349 -4.9707947 1.1628302 232
-0.84743905 -5.7617478 1.3305999 418
-0.74583483 -5.6979771 1.3005042 170
-0.80442345 -5.7073965 1.4522878 330
-0.72805953 -5.7038798 1.4345521 360
-0.78313708 -5.7731171 1.6008193 170
-0.71026945 -5.7148399 1.5742292 350
