# .PCD v0.7 - Point Cloud Data file format
VERSION 0.7
FIELDS x y z intensity
SIZE 4 4 4 4
TYPE F F F F
COUNT 1 1 1 1
WIDTH 1
HEIGHT 97
VIEWPOINT 0 0 0 1 0 0 0
POINTS 97
DATA ascii
0.088523142 1.7174817 0.28109729 335
0.17176497 1.7293048 0.2787939 322.5
0.092347495 1.8423328 0.27308771 277.66669
-0.17550826 2.0895712 0.2873562 315
-0.0077163875 2.0843818 0.29381937 341
0.089372948 2.0860672 0.27551645 379
-0.052287638 2.1314714 0.26898137 311.66669
0.22245929 2.1832566 0.25568575 332.57144
0.31968379 2.1570842 0.24828769 337
0.090463229 1.7565057 0.3667284 331
0.16994837 1.768308 0.37965742 324.63638
0.10381276 1.8346894 0.34797612 293
0.19812784 1.8241132 0.35387826 300.33334
-0.17008102 2.088537 0.34909052 309
-0.061975319 2.0647705 0.36916977 347.72729
0.0087097287 2.0560236 0.42953461 333
0.20827332 1.9569548 0.40678027 273
0.31720579 2.0984652 0.38594866 335
-0.18675971 2.1575294 0.40036607 279
-0.073515043 2.1615193 0.38136867 273.75
0.093729727 2.1312063 0.36733618 314.60001
0.23771474 2.1693614 0.37030137 309.91669
0.34745494 2.1563501 0.37311378 317.85715
0.37463456 2.2595301 0.37518284 303
0.10676438 1.7734016 0.51310569 355
0.19522469 1.7886145 0.50857663 318.33334
0.095998377 1.8621812 0.57068157 311
0.18916792 1.8307701 0.53168142 323
-0.1526742 2.0812461 0.55328113 347
-0.095910184 2.0219193 0.53384304 395
0.048174556 2.0555356 0.53883791 378.45456
0.23519282 2.0821912 0.51772511 363
0.33686507 2.0742061 0.54005855 407
-0.16961516 2.128758 0.49927694 313
-0.0596653 2.1271391 0.51751906 313
0.12080659 2.1395106 0.51008552 331.39999
0.2462033 2.1373954 0.50786299 340
0.33484644 2.1754651 0.50363284 311.75
0.22160372 1.8393975 0.62515867 305
-0.068727434 2.0422993 0.67103595 383.85715
0.088702157 2.0569406 0.68704295 452.53848
0.23404837 2.0741019 0.67256802 419.83334
0.35291398 2.0811081 0.65353096 451
-0.07284306 2.1304545 0.69006538 318.66669
0.078262016 2.1186395 0.6405344 353
0.19683036 2.1272097 0.66583204 349.66669
0.3916392 2.1320653 0.7294516 316
-0.013292387 2.0431125 0.8241446 369
0.082837731 2.0482891 0.82977432 391.33334
0.19938017 2.0635536 0.81139952 374.14288
0.35449764 2.0859087 0.79107571 344.60001
0.47438574 2.0734007 0.80816424 240
-0.082298346 2.1509416 0.83896524 301.125
0.011636555 2.193753 0.81801391 277
0.27850354 2.1340451 0.83194441 310
0.38219303 2.1252749 0.86427981 347.75
0.4802534 2.1322117 0.82043993 331.5
0.098842092 2.0684466 0.98216838 320.80002
0.22008474 2.0778677 0.9644922 351.9231
0.30083951 2.0809114 1.0081408 393
-0.070168026 2.1498747 0.95470542 305
0.055780664 2.2120795 1.012002 302
0.27595374 2.1252244 0.950858 341.66669
0.3602446 2.1513791 0.99838018 331.33334
0.45773816 2.1940536 0.98227632 332.5
-0.036550641 2.2563319 1.0153269 350.5
0.078539476 2.0622878 1.1219307 373.66666
0.21036544 2.0638134 1.1275396 398.14288
0.32604128 2.0579333 1.1078291 367.66669
-0.18486795 2.2169337 1.1350868 277
-0.047443788 2.1820881 1.1192126 326.14288
0.037957307 2.1883597 1.1202859 325
0.26481044 2.1170983 1.0841551 311
0.37513825 2.1582196 1.1281331 329.90909
0.4770143 2.2163687 1.1043611 284
-0.07809484 2.2825079 1.114969 275.66669
0.0938574 2.0514071 1.2618725 376.60001
0.20538524 2.0718384 1.2591103 368
0.35135508 2.0500002 1.2115722 429
-0.064459115 2.1470597 1.2645363 291
0.043130904 2.1628416 1.2714998 311
0.26840162 2.133893 1.2930226 317
0.3681888 2.1375475 1.2730837 332.25
0.45013314 2.1656592 1.2974677 313
0.13048244 2.0651221 1.4368533 324
0.19048798 2.0720356 1.4467728 325.20001
0.30839598 2.0607562 1.4699256 328
-0.048855826 2.1590719 1.3867952 304
0.10962172 2.1639752 1.4334078 314.16669
0.24372172 2.1573801 1.4306011 304.39999
0.38493454 2.1929531 1.3811316 285.66669
0.21793458 2.0377793 1.576962 324.375
0.3615303 2.0595412 1.5630112 320.5
0.23881397 2.1136339 1.6096332 287
0.32040781 2.1312869 1.5309645 372
0.26336822 2.0222428 1.6661074 316
0.18407072 2.1194856 1.707348 275
