# .PCD v0.7 - Point Cloud Data file format
VERSION 0.7
FIELDS x y z intensity
SIZE 4 4 4 4
TYPE F F F F
COUNT 1 1 1 1
WIDTH 1
HEIGHT 62
VIEWPOINT 0 0 0 1 0 0 0
POINTS 62
DATA ascii
1.521089 2.4869297 0.10935664 352
1.5771221 2.3244417 0.2486774 304.89999
1.4796809 2.5213656 0.26145628 309
1.5658901 2.5026596 0.19354855 322.33334
1.4809469 2.5792592 0.20126481 304.39999
1.5887312 2.3336215 0.37183607 303.33334
1.661729 2.3502474 0.33297968 291
1.4695431 2.5020721 0.38711026 303.88889
1.5760155 2.5086021 0.35858327 315.5
1.4629648 2.6149688 0.32367843 259
1.6008477 2.5831537 0.35841399 255
1.6052885 2.3281677 0.51177025 322.5
1.6505148 2.3118441 0.57481468 311
1.4508156 2.4569445 0.51939911 319.85715
1.5813663 2.4628243 0.53931427 296.20001
1.5812819 2.3574891 0.69867867 352.33334
1.6709139 2.3234062 0.67308241 314
1.2602906 2.4317985 0.67211527 288
1.4399811 2.4518421 0.69369179 317.11111
1.5659952 2.4545133 0.6652137 320.11111
1.7000965 2.4092777 0.68558246 308
1.4307119 2.5526366 0.63702035 303
1.6240535 2.2055118 0.83997595 316.66669
1.6582216 2.2439034 0.89232922 340
1.2516015 2.3970709 0.76309407 362
1.4804932 2.3752823 0.83481836 416
1.584162 2.3610885 0.83014911 403
1.7086718 2.3717818 0.78147399 275
1.2975628 2.4749057 0.81870413 287.66669
1.4313693 2.4642015 0.82506311 363.83334
1.557081 2.420886 0.82154047 389.5
1.6712565 2.43397 0.86861396 375
1.4250116 2.5963297 0.85530221 309
1.6423156 2.2074673 0.95046258 301
1.4368824 2.3945222 0.94541842 405
1.5589906 2.3339589 0.9723922 402.25
1.6856045 2.3404589 0.98555601 342.75
1.3162858 2.4504402 0.970447 332.33334
1.4332032 2.4664311 0.99529397 377.00003
1.5237126 2.4242516 0.98237604 399
1.7077925 2.4667802 0.94680274 321
1.4307501 2.5650909 0.95579731 332
1.3444908 2.3900988 1.1553741 411
1.4451969 2.3757365 1.1178112 460.20001
1.5734978 2.3348947 1.1149981 477.66669
1.7485385 2.3863952 1.115566 313.33334
1.3127106 2.4574172 1.1115565 334.80002
1.4110644 2.4285774 1.1187539 425.66669
1.531624 2.4007406 1.1150568 461
1.4213061 2.3742032 1.2305179 401
1.575671 2.3739464 1.2539144 378.66669
1.6800021 2.3605478 1.2483668 351
1.4427738 2.48241 1.2877103 356.5
1.5368383 2.4139957 1.2702465 340.33334
1.4387462 2.2483525 1.4164987 301
1.5576705 2.2365797 1.4126397 309
1.4523014 2.32618 1.4338921 297
1.5510889 2.3022664 1.4096594 301.375
1.4643195 2.4354148 1.4038175 270
1.5088056 2.4192123 1.3634174 237
1.459709 2.3367407 1.5401688 298.80002
1.5597686 2.2987039 1.5292774 312.75
