# .PCD v0.7 - Point Cloud Data file format
VERSION 0.7
FIELDS x y z intensity
SIZE 4 4 4 4
TYPE F F F F
COUNT 1 1 1 1
WIDTH 1
HEIGHT 57
VIEWPOINT 0 0 0 1 0 0 0
POINTS 57
DATA ascii
3.3537278 -0.1744508 0.077556327 373
3.1013565 -0.046346918 0.092300072 411
3.2885585 -0.079188831 0.10517967 319
3.3545828 -0.11255325 0.055140596 385.33334
3.2646883 0.0021053031 0.10733086 323
3.3677711 0.016139721 0.031541914 364.5
3.2866063 -0.19930144 0.17245606 459
3.3571155 -0.17544691 0.21386664 440.33334
3.4721127 -0.25355896 0.23240066 275
3.0953145 -0.041065197 0.18554589 375
3.2209086 -0.014914278 0.22099644 403.66669
3.3664844 -0.10456263 0.20118883 322.25
3.3602548 -0.22152777 0.34612167 385.5
3.2553434 -0.022063432 0.31111774 379
3.3440309 -0.062944405 0.3449868 253
3.3467655 -0.2183075 0.49425766 416.75
3.3881047 -0.056657188 0.49919227 375.57144
3.5072885 -0.11324009 0.45884484 303
3.2746603 -0.18982156 0.7122308 434
3.3445582 -0.21730369 0.63203233 399.33334
3.2698832 -0.097755581 0.71033382 441
3.3190899 -0.048087906 0.62803352 393.33334
3.4612854 0.057805143 0.69131702 202
3.2097406 -0.30978727 0.86408234 1458.3334
3.3882723 -0.33753061 0.79185021 309.66669
3.4895287 -0.41428271 0.86053467 299
3.2211633 -0.21255155 0.82892144 1446.6
3.2456079 -0.067714639 0.83648247 1185.5715
3.3295846 -0.014017078 0.79096329 351
3.3947515 0.044857405 0.83784407 305
3.4759145 0.055585295 0.77135181 296
3.3697126 -0.37308672 0.97716755 403.20001
3.2268896 -0.20331606 0.98225033 877.33337
3.3082964 -0.26490062 1.0480136 317
3.2527022 -0.080861032 1.0018699 756.14288
3.3446751 -0.018557634 0.97778386 343.66669
3.3345838 0.038643241 0.94001901 335
3.2914052 -0.34103709 1.1857717 1775
3.3614311 -0.37287268 1.1085335 633.25
3.2740369 -0.22878961 1.1424898 402
3.3251657 -0.28393358 1.1572289 378
3.2794666 -0.094495408 1.1405351 456.5
3.2994285 0.0011499062 1.1108031 365
3.3488286 0.023685401 1.1390586 329.75
3.3907077 -0.36212975 1.2807713 317
3.4509728 -0.44018462 1.2326437 376
3.2768745 -0.21855308 1.2579386 450.5
3.333703 -0.26526818 1.3079274 357.5
3.2583575 -0.10888894 1.2496307 1056.5
3.3286967 -0.078960441 1.301055 361.5
3.4030032 -0.23409218 1.4457703 372.33334
3.4662712 -0.2405611 1.4267416 296.66669
3.3299735 -0.056545556 1.3779368 286
3.5024352 -0.14049648 1.454893 318
3.424437 -0.21551946 1.5269598 333
3.5181737 -0.2684297 1.5528069 262.33334
3.5650752 -0.14298983 1.5459754 263
