# .PCD v0.7 - Point Cloud Data file format
VERSION 0.7
FIELDS x y z intensity
SIZE 4 4 4 4
TYPE F F F F
COUNT 1 1 1 1
WIDTH 1
HEIGHT 68
VIEWPOINT 0 0 0 1 0 0 0
POINTS 68
DATA ascii
0.73721933 2.3844023 0.14567214 396
0.76004732 2.3439856 0.10210527 292
0.46746567 2.4716389 0.13104534 251
0.56070936 2.6097436 0.1272319 412
0.69687623 2.6579149 0.12557431 254
0.78160489 2.6836398 0.075615585 542
0.76548034 2.7145021 0.09571743 412
0.57336509 2.8938234 0.072060883 394
0.69949305 2.9373536 0.084105857 323.75
0.7943598 2.8508635 0.029631525 376
0.65741563 2.2303305 0.22137354 182
0.40224683 2.2580214 0.18679786 380
0.49332419 2.3432488 0.18283673 285.60001
0.68833083 2.3187349 0.18931071 308.80002
0.79287183 2.3228757 0.18075596 271.66669
0.67537463 2.9011655 0.17327327 292
0.66157526 3.0491426 0.21808936 297.57144
0.53153563 2.9805369 0.39789319 317
0.45544344 3.0497723 0.41393161 278.5
0.66599625 3.0607765 0.38548502 293.20001
0.81541163 3.0335319 0.40136397 283
0.5127393 3.0611942 0.47973317 281.66669
0.67692989 3.0452228 0.51531553 297
0.7986595 3.0359979 0.48595262 278.33334
0.7382834 3.2048988 0.55243069 241
0.58300197 3.3300118 0.55643886 304
0.60969901 3.3780904 0.58977556 291
0.69815785 3.1221797 0.65699053 294
0.81172788 3.0846374 0.71615237 309
0.54901618 3.195837 0.72836006 288.33334
0.66988921 3.1655824 0.702429 267
0.53533733 3.3706849 0.64676332 322.80002
0.63154119 3.3331485 0.69228208 316
0.77556682 3.3918583 0.63401425 351
0.82720983 3.1185775 0.85751259 329.5
0.54391909 3.2225611 0.84723049 296
0.66649574 3.2310202 0.82071978 292.71429
0.76737761 3.2515416 0.81135637 270
0.4487659 3.4060581 0.85279143 318
0.49412477 3.3559656 0.83689094 323
0.79723179 3.3190639 0.8572154 295
0.60776561 3.0800841 1.0050426 363
0.44370884 3.2416284 0.9885574 267
0.50916338 3.2266908 0.98991203 296.20001
0.66605198 3.2428558 0.98879349 309.33334
0.79518265 3.21141 0.97432721 290.33334
0.53273571 3.315846 0.94514543 314
0.72223109 3.3124533 0.95146263 299
0.789693 3.3246229 0.94217944 289
0.56551147 3.1403167 1.1626773 328.33334
0.67240876 3.1233678 1.1392009 323
0.80513448 3.1095674 1.1132998 302.33334
0.39805329 3.2341049 1.1622629 329.5
0.49081412 3.2037251 1.1034201 297.80002
0.72048038 3.1715302 1.0878462 316
0.80573416 3.1554649 1.069716 301
0.54239386 3.1226735 1.2592902 324.66669
0.69412464 3.090759 1.2649014 341
0.79793805 3.0912044 1.2701099 338.39999
0.41984954 3.1862767 1.2729824 308
0.50586569 3.1672354 1.2934335 307
0.86264002 3.169971 1.318869 263
0.5482527 3.0599504 1.4325503 290.66669
0.65319794 3.0885744 1.433737 306.42859
0.77974331 3.0895381 1.3896422 319
0.45325679 3.2584801 1.4189838 281
0.53943908 3.0182271 1.5698321 313.66669
0.634745 3.0155358 1.5513052 285.5
