# .PCD v0.7 - Point Cloud Data file format
VERSION 0.7
FIELDS x y z intensity
SIZE 4 4 4 4
TYPE F F F F
COUNT 1 1 1 1
WIDTH 1
HEIGHT 58
VIEWPOINT 0 0 0 1 0 0 0
POINTS 58
DATA ascii
6.7343864 -5.7553277 3.1282458 330
6.8758936 -5.5803719 3.0928168 302
6.7477775 -5.5251808 3.056993 358
6.9450631 -5.3830152 3.0424051 348
6.6489015 -5.6952753 3.290751 358
6.7981815 -5.5086727 3.2518728 350
6.975821 -5.3551617 3.2317853 348
7.1418147 -5.1761498 3.20502 306
6.6978288 -5.7006774 3.3000412 336
6.613996 -5.6189008 3.4438076 352
6.7468758 -5.4366441 3.4032226 344
6.8134885 -5.4879427 3.4326296 332
6.9531045 -5.3073955 3.3971608 332
7.1605058 -5.173687 3.3932505 328
6.7244649 -5.7034802 3.4922924 344
6.7609892 -5.4070039 3.5708947 346
6.9630952 -5.2870893 3.5687642 337
7.1495461 -5.1500831 3.5608187 350
6.6869335 -5.6453152 3.6433651 346
6.8134794 -5.4405203 3.6759634 344
6.9849029 -5.2521582 3.7275047 344
7.1437612 -5.131886 3.7204595 328
6.7873249 -5.7215538 3.8602405 362
6.6650639 -5.5786881 3.7815657 362
6.8546782 -5.4880838 3.7857838 342
6.9965615 -5.3124189 3.7516098 346
7.0109515 -5.2361622 3.8836946 346
7.1799312 -5.1464715 3.890954 360
6.6784625 -5.8446856 4.047297 368
6.7842646 -5.7028632 4.0121441 368
6.7060213 -5.5746508 3.945055 356
6.8501558 -5.4696684 3.9352674 364
6.8357291 -5.391417 3.9021306 366
7.004674 -5.3053083 3.9078341 354
7.2090287 -5.157268 4.0488257 356
6.6589456 -5.7870197 4.1685615 200
6.8017907 -5.7040644 4.1653299 168
6.7910385 -5.6102233 4.1247468 312
6.917552 -5.4675679 4.0966864 363
7.0090022 -5.2968721 4.051971 380
7.1212234 -5.2868409 4.0754967 372
7.0974097 -5.2360654 4.1829534 260
7.2255993 -5.1608081 4.187439 180
6.6246686 -5.7192221 4.26614 308
6.7518768 -5.6489415 4.2653708 354
6.7337937 -5.4933648 4.3153939 332
6.8453012 -5.4338055 4.3181109 342
6.938107 -5.4620848 4.232707 257
6.8932929 -5.3376365 4.2904868 318
7.0052547 -5.2766538 4.2947783 138
7.087585 -5.3489103 4.2246141 272
7.047214 -5.1675467 4.2622285 354
7.1742296 -5.1158276 4.2763448 262
6.7418976 -5.7898936 4.44521 366
6.7353883 -5.6252499 4.3721867 302
6.8422084 -5.4254479 4.4174137 308
6.9762278 -5.2487869 4.3789797 320
7.1457944 -5.090292 4.3617754 308
