# .PCD v0.7 - Point Cloud Data file format
VERSION 0.7
FIELDS x y z intensity
SIZE 4 4 4 4
TYPE F F F F
COUNT 1 1 1 1
WIDTH 1
HEIGHT 80
VIEWPOINT 0 0 0 1 0 0 0
POINTS 80
DATA ascii
2.170696 -1.2489671 0.092306219 506.20001
2.0416822 -1.9791764 0.21045832 509.39999
2.1705079 -1.9657944 0.29295278 575
2.1689327 -1.8912468 0.21881802 623.44446
2.2849255 -1.8513855 0.24184439 560
2.1271074 -1.3840015 0.21105365 400.33334
2.1537549 -1.2790853 0.20917737 578.75
2.2505457 -1.2326777 0.28915849 577
2.2077055 -1.1515167 0.21433845 571
2.2517211 -1.1646086 0.28479224 573
1.9201617 -2.1278687 0.36715555 536
1.9404624 -2.063839 0.35902187 2026
2.0355709 -2.0000095 0.38405338 921.79999
2.1307912 -1.9732507 0.37993288 591.66669
2.1797678 -1.8800032 0.36948583 1256.2001
2.279238 -1.8639097 0.37496442 486
2.0958455 -1.6579694 0.44929057 335
2.194556 -1.705911 0.38864121 651.66669
2.3361025 -1.7237326 0.34681177 476.5
2.4181485 -1.7036403 0.36963612 658
2.0693426 -1.5703361 0.41294503 391
2.3317423 -1.5869468 0.36588335 467.33334
2.1493261 -1.4062933 0.37242448 499.57144
2.1717074 -1.2988873 0.34068686 636.5
2.3050992 -1.2666569 0.37865871 476.33334
2.4288712 -1.2393914 0.44730079 327
2.3151457 -1.1880376 0.36205718 454
1.9856161 -2.1165142 0.55806947 533.66669
2.0162416 -1.9963644 0.51725572 1834.3334
2.1642272 -1.9757016 0.51436621 565
2.2899909 -1.9655657 0.50435776 316
2.086308 -1.8280208 0.5939362 311
2.1931193 -1.9031606 0.51461643 968.33337
2.299402 -1.8601522 0.52401423 546.42859
2.0354743 -1.7927728 0.5295217 443
2.195405 -1.7027104 0.53993809 435
2.3384137 -1.6858218 0.54787904 1290
2.4179082 -1.781443 0.50747335 373
2.0930693 -1.6490133 0.50702381 361
2.2183454 -1.5781238 0.49196124 1409
2.3345325 -1.5817845 0.52531648 832.20001
2.4938293 -1.5586298 0.54380608 413
2.3652699 -1.455759 0.51265991 442.33334
2.4713292 -1.414855 0.56978118 887.66669
2.2477553 -1.325613 0.46182072 389
2.3954132 -1.3483907 0.45916837 323
2.4704528 -1.2943525 0.48283049 317
2.0391202 -2.129251 0.67948127 523.5
2.0563169 -1.9676664 0.65053684 2334
2.1952384 -1.9902771 0.6486178 531.5
2.1784177 -1.8615973 0.67757618 916.5
2.3259842 -1.8698467 0.70536232 720.66669
2.2401466 -1.7638295 0.67631567 432
2.3359342 -1.6996456 0.66061568 415.85715
2.4215837 -1.679204 0.66183066 2318
2.3805919 -1.6328275 0.68749177 429
2.4675212 -1.5748812 0.6702581 405.57144
2.576591 -1.5257399 0.74312693 317
2.4845352 -1.4698362 0.66385889 325
2.5593307 -1.4365071 0.69448841 363
2.1789606 -2.0399873 0.79727793 379
2.1649163 -1.825567 0.80893123 2269.6667
2.3176265 -1.8745058 0.83267701 413
2.222683 -1.7296144 0.8335979 2343
2.3202169 -1.7311423 0.79738134 1123.4
2.5001636 -1.7571197 0.78040802 363
2.3973505 -1.6181818 0.81862104 2361
2.478934 -1.584144 0.83045024 914.60004
2.5871933 -1.5248556 0.84697479 428
2.5400009 -1.4127302 0.855923 2263
2.5718918 -1.4372997 0.79620218 337
2.2223597 -1.8696032 0.96576619 535
2.3259144 -1.8093401 0.95711863 354
2.165843 -1.7912762 1.0399637 557
2.3377092 -1.7439337 0.97506684 499
2.4541032 -1.7070528 0.90822041 421
2.5427735 -1.5762939 0.98932147 458
2.6188107 -1.5646172 0.96100497 288.5
2.6329603 -1.4657855 0.94237375 379
2.2887113 -1.8165815 1.1233523 349
