# .PCD v0.7 - Point Cloud Data file format
VERSION 0.7
FIELDS x y z intensity
SIZE 4 4 4 4
TYPE F F F F
COUNT 1 1 1 1
WIDTH 1
HEIGHT 91
VIEWPOINT 0 0 0 1 0 0 0
POINTS 91
DATA ascii
0.40974611 -2.4487844 0.14474303 296
0.41488284 -2.4552715 0.23692891 325
0.47621912 -2.4356112 0.22198662 309.66669
-0.21716665 -2.2963402 0.28477937 290.33334
-0.082146674 -2.2957463 0.28732768 277.33334
0.072366416 -2.2805731 0.28587109 271.5
0.20656717 -2.3559909 0.27768576 323.5
0.43099615 -2.373704 0.21076332 318
0.50140005 -2.3427911 0.21673417 377.20001
0.5628857 -2.1848114 0.22224621 349.45456
0.59136361 -2.0381169 0.22442058 273.71429
0.60175389 -2.020803 0.24944346 254.33334
-0.25701517 -2.4352462 0.35060307 283
0.12110797 -2.4062843 0.31979153 286
0.19465756 -2.4163132 0.35820484 356.5
0.42327568 -2.4587998 0.37551075 303.20001
0.48776877 -2.454468 0.39750481 256
-0.20350857 -2.3040998 0.37479565 298.30002
-0.053749114 -2.2842185 0.37661669 461.38889
0.067846015 -2.3109336 0.37292835 505.61111
0.218592 -2.3464043 0.37373698 330.66666
0.49715191 -2.3306367 0.36093435 369.5
-0.16487125 -2.2449141 0.31131452 289
-0.094328426 -2.2410963 0.37219337 315.57144
0.55842698 -2.1875033 0.36801419 295.54547
0.57027161 -2.0690498 0.39459103 402
0.61373925 -2.0144496 0.38318276 290.125
0.2012351 -2.4193394 0.51811188 304.11111
0.43746436 -2.4282472 0.48629966 322
0.47827649 -2.4173808 0.51454878 367.5
-0.053895503 -2.373224 0.50098068 313.25
0.089908496 -2.3272479 0.52446812 1092.4667
0.2286807 -2.3873487 0.56047523 315
0.44756877 -2.3936565 0.59532613 366
0.51213861 -2.3708808 0.53093499 352.25
0.54097068 -2.1926479 0.53407669 345.125
0.58640391 -2.0482814 0.51310056 357
0.6090107 -2.0194647 0.57431018 267
0.51693964 -2.570384 0.718261 327
0.049665913 -2.4292731 0.67820996 315
0.23763084 -2.442636 0.68492687 309.39999
0.39199454 -2.4864748 0.70609456 334.20001
0.48967469 -2.4875069 0.68204355 338
0.092949681 -2.3726692 0.66351354 339.28574
0.19935225 -2.3717263 0.67251527 337
0.50700021 -2.3186908 0.62906802 388
0.58408874 -2.0266643 0.69347334 289.16669
0.61244607 -1.9739382 0.61484396 271
0.61810315 -1.9421154 0.6566323 291
0.5220812 -2.567168 0.81070733 318
0.099800453 -2.4517217 0.82757914 788
0.24768271 -2.4464769 0.82882053 325.85715
0.42248607 -2.4961793 0.81580317 333.5
0.49766749 -2.4576921 0.82572925 308.33334
0.098667033 -2.3538709 0.76885402 2069
0.17927231 -2.3764 0.80203068 378.20001
0.44994119 -2.3934565 0.76286507 214
0.50767094 -2.3673987 0.81867421 352.80002
0.57490033 -2.0414791 0.83720082 278.20001
0.099762812 -2.5620971 0.92554384 301
0.10100947 -2.5084388 0.96693116 370.20001
0.18259123 -2.4124391 0.94052112 331
0.39334694 -2.4746737 0.96239597 281.60001
0.47200871 -2.4220572 0.98037821 427
0.4394592 -2.3829923 0.97593439 404
0.50283825 -2.3290997 0.99325889 261
0.5451383 -2.1649718 0.95796144 303.25
0.40821213 -2.4653316 1.146518 285
0.46386427 -2.4276466 1.1125902 240
0.48004141 -2.3386457 1.1258264 375.39999
0.4086481 -2.4743106 1.3052905 287.5
0.43477917 -2.3933854 1.2374272 248
0.47577053 -2.2973702 1.2566309 325
0.42274511 -2.4251654 1.4480882 311.5
0.44341508 -2.3738015 1.4210304 389
0.47435629 -2.2578425 1.3929094 275
0.45964086 -2.4087341 1.5285419 233
0.42387411 -2.3760605 1.5799404 293.5
0.4666608 -2.344878 1.601652 252.60001
0.40493503 -2.4523041 1.7122035 314.5
0.40663835 -2.3605924 1.7446727 354
0.48155493 -2.296001 1.6893752 332.5
0.48868302 -2.1863098 1.7286266 355.71429
0.3578493 -2.4542887 1.8881705 307.33334
0.40099746 -2.3501902 1.8662088 363
0.46119806 -2.3081503 1.8394102 416
0.41612995 -2.236732 1.9001362 386
0.49318525 -2.2056146 1.8892663 241.66667
0.35577303 -2.4330301 2.0056384 278
0.36604282 -2.3218141 2.0014427 294.66669
0.45124862 -2.3046227 1.964507 170
