# .PCD v0.7 - Point Cloud Data file format
VERSION 0.7
FIELDS x y z intensity
SIZE 4 4 4 4
TYPE F F F F
COUNT 1 1 1 1
WIDTH 1
HEIGHT 79
VIEWPOINT 0 0 0 1 0 0 0
POINTS 79
DATA ascii
2.0904977 -4.6633158 0.07705801 298
2.0918598 -4.6319957 0.13367844 236
2.1498139 -3.8858666 0.072335437 248
2.1094108 -4.6592836 0.22329758 334
2.1138041 -4.6284113 0.22141528 305
2.176949 -3.9022264 0.22723424 251
2.0734448 -3.886724 0.28627038 402
2.1600604 -3.8457949 0.185956 392
2.1153331 -4.6085472 0.35114956 314.33334
2.1008921 -4.2591419 0.39641932 80
2.0723267 -3.9018219 0.37555525 242
2.1111419 -3.9201252 0.37058896 265
2.182847 -3.8686769 0.40155196 280.5
2.0801425 -4.6938481 0.53921294 344
2.1214385 -4.5909433 0.52312076 310
2.0931065 -4.2111588 0.49258694 100
2.0939298 -4.0996232 0.48227161 154
2.0957992 -4.0495338 0.57614589 208
2.1326625 -3.9206595 0.52455354 270.33334
2.0705245 -3.872195 0.46521649 384
2.0815015 -4.627614 0.64342541 232
2.1348968 -4.5689092 0.68534434 292
2.1128097 -4.3799996 0.61068738 342
2.1110568 -4.3135204 0.71164 342
2.1145208 -4.1963377 0.69549978 372
2.0603731 -3.9174395 0.66584074 246
2.157757 -3.9349735 0.65507692 272
2.1542387 -3.8123896 0.74017072 112
2.1190917 -4.5683565 0.82242715 314.66669
2.1081977 -4.2448173 0.81258953 350
2.1220522 -4.1796365 0.80066144 344
2.1230421 -3.9275522 0.81410658 283
2.0869648 -4.6853352 1.0066384 262
2.1221557 -4.5185719 0.97202194 320
2.1309173 -4.4619126 0.96074092 328
2.1180575 -4.205812 0.91650128 372
2.1143384 -4.1190987 0.97594762 345.33334
2.1484549 -3.9169033 0.96918112 283
2.0906146 -4.6853771 1.1309381 356
2.1188402 -4.3897357 1.1271243 341
2.1156812 -4.0609016 1.1138083 210
2.0658655 -3.9107285 1.1949561 402
2.1811204 -3.9255099 1.1144655 267
2.1789811 -3.896919 1.181666 290
2.0775161 -4.5906363 1.237896 234
2.1193552 -4.3100429 1.289341 349
2.0855474 -3.9250748 1.3080506 414
2.1080329 -3.9442723 1.3114417 281
2.1807406 -3.8614392 1.2835083 140
2.110754 -4.5832787 1.4224911 340
2.1218734 -4.2627382 1.3971537 344
2.1084921 -4.1507564 1.4854764 346
2.1192498 -3.9367182 1.421164 286
2.1227527 -4.5473399 1.6034141 352
2.1057053 -4.4566092 1.5774838 344
2.1269875 -4.2313643 1.5678117 340
2.1342754 -3.9236197 1.5659714 288.33334
2.0456507 -3.8895819 1.6339557 370
2.1541941 -3.8720922 1.622134 380
2.072866 -4.7065763 1.722039 318
2.0998259 -4.371181 1.6755396 200
2.0785093 -4.2520742 1.7581819 212
2.1050987 -4.1235847 1.7116164 230
2.0949032 -3.9387085 1.7600389 265
2.1463692 -3.9169092 1.7496554 285
2.0729468 -4.6594558 1.9023671 374
2.0674672 -4.5334768 1.8581101 398
2.0733118 -4.4056196 1.8745995 321
2.1460204 -4.4046555 1.9310308 353
2.3413992 -4.1397109 1.9411359 348
2.1408455 -3.9254279 1.8638628 285
2.0658469 -4.5929241 2.0074308 314
2.0781107 -4.2672944 2.0023229 410
2.1868317 -4.2296109 1.9819885 316
1.9173555 -4.1702728 1.9727415 152
2.0259533 -4.1388712 1.9538319 326.5
2.0538545 -3.9523907 1.9867606 179.5
2.1705482 -3.9432988 1.9792171 278
1.9271435 -3.8748381 1.9592398 224
