# .PCD v0.7 - Point Cloud Data file format
VERSION 0.7
FIELDS x y z intensity
SIZE 4 4 4 4
TYPE F F F F
COUNT 1 1 1 1
WIDTH 1
HEIGHT 93
VIEWPOINT 0 0 0 1 0 0 0
POINTS 93
DATA ascii
0.56379157 1.5750793 0.25089759 549.15387
0.60946923 1.5736992 0.23860589 340
0.37817419 1.7216942 0.27103618 420.57144
0.46358401 1.7477827 0.26005769 403
0.4118351 1.8927478 0.2257479 377.20001
0.45791617 1.8956072 0.19385818 364
0.58786267 1.4720317 0.44599146 308
0.56720668 1.5727535 0.36457708 679.57147
0.60317367 1.564571 0.35664153 329
0.39833796 1.7249207 0.35755002 424.81821
0.4835847 1.7197144 0.38179749 400.39999
0.61407298 1.6522163 0.35625026 285
0.35050982 1.8172706 0.4267844 306
0.56358433 1.1706712 0.52388668 177
0.56196988 1.280488 0.52229595 294.92859
0.60902715 1.2417663 0.54146922 276
0.58979857 1.4159529 0.47259584 346
0.55517429 1.6152289 0.52036071 307.71429
0.24681132 1.768557 0.57152879 347
0.41841614 1.7437259 0.51185715 459.44446
0.48212436 1.7415787 0.49146509 344.875
0.36830077 1.8297107 0.55448818 321
0.2466287 1.989833 0.57237637 358
0.36479473 1.9935124 0.52832478 365
0.58636171 1.1786158 0.6262815 330
0.58861351 1.2150593 0.6025852 302
0.56995463 1.493091 0.70421553 144
0.54395211 1.5443933 0.72076946 367
0.63854414 1.5458049 0.69207764 496.33334
0.27113959 1.7577571 0.66830784 489
0.39670235 1.7671655 0.67872655 445.18182
0.4825145 1.7750366 0.6896497 445
0.24033618 1.8791138 0.68869919 471.39999
0.35087696 1.8845357 0.68178606 405.20001
0.52980435 1.8860734 0.69072515 388.20001
0.23153117 1.981336 0.64087147 404.75
0.31811035 1.9657943 0.64464486 409
0.53797191 2.0172281 0.68300092 328.66669
0.60504341 2.046267 0.65086126 294
0.67505074 1.4515318 0.79689825 379.5
0.57333034 1.5964062 0.8037585 372.25
0.64832151 1.574254 0.83960652 366.66669
0.29643258 1.7488759 0.77057147 519
0.37223783 1.7593807 0.83378744 473.18182
0.47977465 1.7954226 0.84057879 595
0.61854064 1.6705146 0.82879895 263
0.25120482 1.8827391 0.84078193 480.81821
0.3857851 1.8484279 0.81299621 495
0.52362984 1.8333948 0.8250103 477.5
0.2766926 1.9690945 0.77295977 367
0.56713593 1.9629176 0.79314005 300
0.64337212 1.6327469 0.9474501 331.75
0.3872835 1.7754601 0.97628766 598.60004
0.50729138 1.7413285 0.97802585 560.33337
0.674833 1.6855452 0.96294338 313
0.26441056 1.8593594 0.98997891 503.39999
0.37311667 1.8577175 0.97709006 487
0.50499725 1.8348728 0.98487872 519.40002
0.56506681 1.6484622 1.1401554 541
0.63687968 1.6415799 1.1477835 467.66669
0.41405824 1.7636046 1.1232573 601.25
0.51460856 1.7522454 1.1399206 476.1579
0.64051718 1.7292402 1.1232574 306.33334
0.097222686 1.8669276 1.1835237 315
0.24955957 1.8688332 1.1189675 413
0.366743 1.865863 1.1104221 411.88889
0.53724474 1.8117709 1.0795724 490
0.053718295 2.016614 1.1564325 357.66669
0.17182821 1.9686974 1.1649303 305
0.15675205 2.1029952 1.1617744 249
0.64684367 1.6367651 1.2052777 459
0.42343268 1.7429956 1.263038 443
0.50410962 1.7390457 1.2609985 443.66666
0.67609042 1.733557 1.2669685 330
0.096602917 1.9009392 1.2639396 279
0.23954816 1.913252 1.2844797 347.5
0.34945852 1.8864124 1.2464461 389.00003
0.53907871 1.8272508 1.3223615 358.5
0.14497964 1.950019 1.2723446 279
0.24481356 2.0369322 1.2767695 387.00003
0.32741109 2.0030539 1.2927982 355.20001
0.22796169 2.1626883 1.2257487 300
0.39130938 1.7673695 1.4592725 301.85715
0.5044741 1.7646554 1.4019207 347.5
0.2736201 1.8867645 1.3778679 299
0.35783482 1.8569068 1.4025116 305.07693
0.54113907 1.8359351 1.487343 287
0.27615476 2.0198393 1.4428673 287.5
0.33936441 1.9861629 1.4233749 324.25
0.29115307 1.7584881 1.5246743 277.66669
0.36540073 1.7295088 1.5496867 303.23999
0.27493602 1.8264896 1.5032082 245
0.35953102 1.8144315 1.5225751 272.33334
