# .PCD v0.7 - Point Cloud Data file format
VERSION 0.7
FIELDS x y z intensity
SIZE 4 4 4 4
TYPE F F F F
COUNT 1 1 1 1
WIDTH 1
HEIGHT 67
VIEWPOINT 0 0 0 1 0 0 0
POINTS 67
DATA ascii
2.1174638 -4.728045 0.043286592 172
2.0940611 -4.6440301 0.13348606 298
2.1540031 -3.9258454 0.034427941 257
2.1700044 -3.865591 0.068346217 242.25
2.1136398 -4.6640463 0.2227039 238
2.0754213 -4.5382867 0.22514461 70
2.1794834 -3.9126799 0.22719026 259
2.0651972 -3.8640907 0.28649133 132
2.1696205 -3.8539429 0.22610755 317.5
2.1239266 -4.6591911 0.31844336 320
2.1355579 -4.616374 0.38220972 236.66667
2.174017 -3.9181738 0.39149544 252.33334
2.1170564 -4.5743971 0.5222801 348
2.142808 -3.9086881 0.50572824 279
2.0769889 -3.8695414 0.55887032 262
2.1839929 -3.838661 0.54025996 384
2.0937748 -4.6731625 0.64675939 368
2.1389694 -4.5731792 0.68562186 303
2.1329801 -4.3010788 0.70694458 307
2.111701 -3.9151261 0.65860939 231
2.1696558 -3.864233 0.6949333 296.5
2.1232386 -4.6052213 0.86708963 328
2.131896 -4.4982944 0.84911978 318
2.1109438 -4.2566113 0.81407058 358
2.1314669 -4.1951141 0.80185354 372
2.0962796 -3.9367216 0.76638138 245
2.132225 -3.9287424 0.83087224 286.33334
2.1182282 -4.5222082 0.97316849 322
2.1439207 -4.487741 0.9637683 332
2.1144812 -4.2029943 0.91643023 346
2.1236277 -4.1378002 0.97829217 372
2.1464586 -3.9156375 0.96913826 295
2.0892463 -4.6811471 1.1302342 293
2.1210046 -4.3987136 1.1286666 326.5
2.1292255 -4.0851774 1.1178831 258
2.1754339 -3.9190636 1.1135024 269.66669
2.0491152 -3.8751411 1.1876681 144
2.0788388 -4.5933046 1.2383575 211
2.1134079 -4.2997169 1.287334 358
2.0879922 -3.9251134 1.3078629 243
2.1047745 -3.971149 1.2624347 264
2.1693752 -3.8483093 1.2808304 364
2.1118746 -4.5854692 1.42298 345
2.1067972 -4.2314072 1.3898785 344
2.1022305 -4.1479907 1.4851383 336
2.1237257 -3.9459157 1.4235604 288
2.1239054 -4.5561929 1.6059898 366
2.1030278 -4.4431391 1.5736488 338
2.1154451 -4.2199416 1.5055913 334
2.1194956 -4.1899009 1.615225 336
2.1459823 -3.9462342 1.5727543 284.33334
2.0727217 -4.7107105 1.723242 294
2.1072094 -4.4263644 1.6929903 172
2.0925479 -4.0030179 1.6705182 261
2.1416817 -3.9752643 1.7714067 279
2.0698445 -4.6654801 1.9047546 388
2.2160919 -4.6887879 1.9020194 164
1.9235888 -4.5001278 1.8578869 282
2.0614209 -4.5133204 1.8514345 404
2.2033968 -4.5387983 1.8502432 388
1.9782662 -4.3819947 1.9335181 404
2.0237513 -4.2622747 1.8850801 411
2.0897772 -4.1260777 1.8299966 389
2.3295248 -4.1781182 1.8379539 352
2.0337598 -4.0228801 1.907091 217.5
2.1617417 -3.9720192 1.8814116 336.5
2.3368211 -4.0188551 1.8944013 276
