# .PCD v0.7 - Point Cloud Data file format
VERSION 0.7
FIELDS x y z intensity
SIZE 4 4 4 4
TYPE F F F F
COUNT 1 1 1 1
WIDTH 1
HEIGHT 52
VIEWPOINT 0 0 0 1 0 0 0
POINTS 52
DATA ascii
2.9788935 -3.4920306 0.03226316 265
3.0040386 -3.5117333 0.11533183 265
2.928463 -3.3114798 0.11830278 231.5
2.9716635 -3.2811601 0.054869644 268.33334
3.0732534 -3.2368217 0.037073772 293.33334
2.9945097 -3.4857624 0.2064482 271
2.8937118 -3.3131316 0.21056774 241
2.9666059 -3.2651234 0.25128064 283
3.1180284 -3.2668347 0.22167361 250
2.9799323 -3.4525812 0.30028036 270
2.9557559 -3.2390926 0.38001069 298.33334
3.0887506 -3.2139544 0.36231107 324
3.1919787 -3.1651084 0.44470632 279
3.2500229 -3.1361847 0.38682821 317.5
2.9138505 -3.3215499 0.58965188 259
2.9413319 -3.206073 0.51310426 299.39999
3.0934739 -3.2569613 0.56548005 305
3.2087042 -3.1694858 0.54492694 291
2.8919487 -3.3170941 0.692312 265
3.1653957 -3.3091505 0.67114514 289
2.9165969 -3.2134585 0.67487788 299
3.1045177 -3.1889453 0.65788573 297
2.8289065 -3.3859251 0.81158602 295
2.8360229 -3.1986699 0.82935137 296
2.9083097 -3.2020791 0.80051243 303
3.1169288 -3.1877058 0.76098305 293
2.947706 -3.0862141 0.82916796 323.75
3.0023351 -3.044481 0.84490228 307
2.8260267 -3.3329749 0.94224286 290
2.867743 -3.1961443 0.98187327 325
2.83448 -3.149302 0.97305024 307
2.9537449 -3.0871358 0.95698321 311
3.0127831 -3.0333426 0.99623734 309
3.0724118 -2.8787954 0.96333456 301
3.1588736 -2.901294 0.91658014 304
2.8458674 -3.305089 1.1116631 307
2.8643875 -3.1659555 1.1308955 328
2.8417881 -3.1113195 1.1176815 320
2.9210086 -3.0757613 1.0916119 320.33334
2.9018264 -2.9554977 1.1310593 318
2.8129644 -3.2131348 1.2463634 324
2.8247247 -3.0506377 1.2875843 326.33334
2.9563298 -3.3428073 1.4437206 281
2.9700944 -3.1553862 1.4932848 291
2.8530698 -3.1093683 1.3724356 317
3.0832438 -3.1397638 1.4944026 267
2.9831119 -3.3423257 1.5521375 269
2.9736328 -3.251358 1.59287 258.33334
3.1118946 -3.2374527 1.5255872 275
2.9885731 -3.1464186 1.594015 279
2.9327321 -3.1546836 1.6931001 132
2.9938841 -3.1228254 1.6866801 245
