# .PCD v0.7 - Point Cloud Data file format
VERSION 0.7
FIELDS x y z intensity
SIZE 4 4 4 4
TYPE F F F F
COUNT 1 1 1 1
WIDTH 1
HEIGHT 62
VIEWPOINT 0 0 0 1 0 0 0
POINTS 62
DATA ascii
4.0141497 -0.68248701 0.80789542 249.5
4.0807137 -0.59395826 0.85786837 313
4.0656919 -0.98043454 0.97716999 309
4.1020889 -0.87167352 0.97310299 333
4.3474541 -0.7594896 0.9986096 313
4.000473 -0.68178892 0.99189556 313
4.0660753 -0.58094043 0.99560583 315
4.0255942 -0.96941364 1.1115397 318
4.1558714 -0.87504596 1.0770674 305
4.3356233 -0.80564278 1.1004727 311
3.9726675 -0.6780107 1.1233345 311
4.0378819 -0.56608683 1.1280869 315
4.102941 -0.84592855 1.253324 402
4.3142762 -0.85839689 1.2001548 307
3.9951897 -0.68348521 1.2611392 387.5
4.0359421 -0.55889314 1.2171229 315
4.0975089 -0.55363131 1.2889721 314.33334
4.0045266 -0.96276295 1.4207579 313
4.1092768 -0.83482015 1.3880558 293
4.337955 -0.86458266 1.4458712 282
3.9839866 -0.68336773 1.4276469 297
4.3162704 -0.71722567 1.4273827 285
4.0172119 -0.53943503 1.4251137 305
4.1443882 -0.56003022 1.4601476 294
4.3657818 -1.1723368 1.5816238 285
4.0090914 -0.96378446 1.5466232 309
4.4333897 -1.0172502 1.5791446 302
4.0926418 -0.81505787 1.5526021 292
4.2713838 -0.85130465 1.5637739 313
3.951525 -0.67962337 1.575135 313
4.2659349 -0.69312131 1.5896273 300
4.0134077 -0.52609599 1.580866 303
4.1175766 -0.55878979 1.5766479 305
4.1018953 -1.0842266 1.7475067 275
4.3383479 -1.163362 1.7931746 295
4.3813577 -1.1759641 1.7223991 261
4.001152 -0.9625234 1.7682536 298
4.0576496 -0.97644866 1.6808993 275
4.410285 -0.99334157 1.7487106 296
4.0342903 -0.78401577 1.7201416 307
4.2905312 -0.85654831 1.6962936 284
3.9244006 -0.6772902 1.706408 317
4.2695074 -0.67928189 1.7505325 256
3.9638619 -0.50423348 1.7351459 309.66669
4.1168194 -0.56149721 1.6905386 306
4.0909376 -1.0642259 1.8810847 248
4.3325224 -1.1617656 1.9082488 297
3.9722271 -0.9566772 1.8828526 302
4.3647094 -0.96542597 1.8899021 288
4.0122313 -0.75906581 1.8962784 308.33334
4.2724652 -0.85545027 1.8791102 295.66669
3.9246719 -0.68264121 1.8775344 305.5
4.2293692 -0.65891373 1.8769295 295
3.9511657 -0.48865995 1.871115 309
4.1422119 -0.57049704 1.8669552 287.66669
4.3107066 -1.1565642 2.037699 293
4.0635757 -1.0412434 1.9849992 306
4.3631048 -0.9492538 2.0243626 283
4.2493606 -0.85447431 2.0269761 287
4.1972156 -0.63802344 2.0076928 291
4.2253146 -0.64867121 1.9663758 245
4.1114435 -0.5745067 2.0203133 258.33334
