# .PCD v0.7 - Point Cloud Data file format
VERSION 0.7
FIELDS x y z intensity
SIZE 4 4 4 4
TYPE F F F F
COUNT 1 1 1 1
WIDTH 1
HEIGHT 58
VIEWPOINT 0 0 0 1 0 0 0
POINTS 58
DATA ascii
0.2099994 2.957761 0.13898128 392
0.42811048 3.3668673 0.13250196 286
0.49296957 3.4032431 0.074352346 312.75
0.13235302 2.9332924 0.20279382 326.75
0.19028187 2.9662836 0.23446713 309.60001
0.25680763 3.0541949 0.23550013 290.33334
0.33901832 3.125262 0.24954793 259.33334
0.37094772 3.2711751 0.23811409 314.5
0.42242098 3.3449266 0.21546529 291.80002
0.49949622 3.3826988 0.22937709 279.5
0.19063908 2.9821646 0.32179251 293
0.24803782 3.038568 0.35481954 288.66669
0.35949427 3.1207669 0.39478999 301.5
0.3864553 3.2732809 0.37680262 297.66669
0.46926612 3.3441486 0.36112028 269
0.24029568 3.0846622 0.51427937 281.66669
0.36178291 3.1067648 0.53100234 298.33334
0.40373135 3.2142732 0.50747484 307
0.24407887 3.4319007 0.59304905 275
0.32166409 3.3445935 0.53980738 280
0.42260307 2.9802623 0.72579533 311
0.2783258 3.0907183 0.66372669 295
0.3948887 3.0711386 0.65654188 316
0.49642521 3.0294213 0.70084411 297
0.24295805 3.2060268 0.69266653 285.66669
0.33203501 3.1855452 0.62765163 291
0.18970774 3.3574715 0.66899675 277
0.23727076 2.9480238 0.85122961 1002.3334
0.38812339 2.9616506 0.84260827 648.20001
0.24392837 3.0688958 0.78948849 306
0.35339713 3.0544283 0.78419203 318.5
0.49674591 3.0755634 0.82026422 293.66669
0.28948683 2.9650865 1.0026559 317
0.35279453 2.9944899 0.95795858 311
0.29440138 3.0981009 0.91281843 301
0.3760398 3.0699527 0.98116654 311.33334
0.47470248 3.0588539 0.98630226 743
0.21158659 3.1902304 0.98503423 282
0.36005881 2.9494708 1.1385531 326.5
0.24142766 3.1130764 1.1640821 307
0.34850055 3.0756805 1.1061583 320.33334
0.4786163 3.0939825 1.1122242 305
0.19663134 3.1917305 1.1509327 284
0.38226932 2.9628587 1.2832464 317.66669
0.2654385 3.1211495 1.3278093 340
0.37700909 3.0753794 1.2086482 329
0.25499976 3.2002928 1.2676892 290
0.39216274 3.1675167 1.3156805 285
0.50319391 3.1722932 1.2106109 249
0.23534481 3.4234202 1.2419256 257
0.42234451 3.1068645 1.4179981 302
0.27699602 3.2999675 1.3790352 283
0.40845048 3.2410345 1.4222497 340.5
0.49307224 3.2257085 1.4881557 250.66667
0.42380863 3.1047707 1.5861638 342.5
0.3802312 3.2072256 1.5040747 309
0.48385587 3.2163348 1.5739119 207.5
0.60042399 3.3612525 1.6069231 271
