# .PCD v0.7 - Point Cloud Data file format
VERSION 0.7
FIELDS x y z intensity
SIZE 4 4 4 4
TYPE F F F F
COUNT 1 1 1 1
WIDTH 1
HEIGHT 73
VIEWPOINT 0 0 0 1 0 0 0
POINTS 73
DATA ascii
0.78689075 -1.5915709 0.13981938 295
0.9412961 -1.4067998 0.13413484 404.33334
1.0692064 -1.3880222 0.12478374 369.33334
0.69459236 -1.5590589 0.23824634 326.61539
0.77900559 -1.5371839 0.22732614 332.64706
0.90348774 -1.5471563 0.23371933 301
0.69874477 -1.4878373 0.24804996 353.66669
0.8049736 -1.4912151 0.26152673 364
0.97821283 -1.398453 0.21267302 419.47058
1.0757483 -1.3902273 0.22508428 384.875
1.0449936 -1.3334116 0.25724733 447.5
0.78688312 -1.6999457 0.32442361 263
0.71115327 -1.5194702 0.35593909 471.25
0.80556661 -1.5563054 0.38847366 385.5
0.68888712 -1.4965019 0.36950502 543.66669
0.81465936 -1.4722263 0.38138586 513.22223
0.98440337 -1.3955597 0.37643719 479.70587
1.0824037 -1.3763579 0.37497318 503.5
1.0068491 -1.326681 0.39905572 601
1.0647415 -1.3102392 0.38855523 672.33337
0.71061969 -1.5033622 0.53172374 575
0.79931545 -1.5538749 0.51922292 429
0.95272684 -1.5581952 0.50374007 297
0.71769279 -1.4862586 0.52036917 601
0.83035243 -1.4444903 0.52624673 627.10004
0.93671215 -1.3998168 0.53179467 633
1.1340487 -1.4434618 0.46545649 297
0.99735373 -1.314014 0.5276978 790.14288
1.1064355 -1.3349676 0.49277478 609
0.69849646 -1.658214 0.68151534 259
0.68628061 -1.5591521 0.68267435 409.83334
0.80801117 -1.5422943 0.60090578 437
0.72330552 -1.4732869 0.67777914 646.60004
0.83297521 -1.432935 0.67091238 727.6875
0.95143372 -1.3897372 0.67956495 749
0.88476038 -1.330135 0.70115054 903
0.98096395 -1.3169807 0.67571503 875.53339
0.7051419 -1.5625507 0.79345316 432.60001
0.78994054 -1.5532045 0.81496906 430.75
0.70531309 -1.4371339 0.83928835 1721.2858
0.81620634 -1.3994408 0.81138313 1135.3334
0.96833831 -1.373032 0.8102625 625.79999
1.0577104 -1.3600694 0.81821114 495
0.7137782 -1.3385695 0.86792624 2651
0.83272803 -1.2947842 0.85583049 3183.25
0.95792085 -1.2900515 0.81777352 1620.6
0.69412315 -1.5547472 1.0381123 331
0.71469706 -1.4314101 0.96923059 881.20001
0.81814528 -1.3862953 0.97942275 685
0.99552333 -1.3909223 1.015857 699
1.1114461 -1.4305791 0.9850409 386
0.71894276 -1.338068 0.90383708 3137
0.86332786 -1.3338927 0.96912777 1044.5
0.94996381 -1.3112429 0.98096997 716.14288
1.0924395 -1.3232259 0.98425305 848.33337
0.69522238 -1.5739685 1.1510112 405.20001
0.80521947 -1.581737 1.1010101 407
0.71832484 -1.450453 1.1241947 537.14288
0.81196123 -1.3926293 1.127431 577.40002
0.97145605 -1.3745054 1.1063612 792.81818
0.87312216 -1.3253446 1.1378067 768.38464
0.95500803 -1.3044028 1.1357715 675.93335
1.0847124 -1.3031352 1.1342558 799.46155
0.65011978 -1.6619927 1.330265 265
0.68716025 -1.5460181 1.2639182 448.5
0.70739698 -1.4469696 1.2537596 1235.5334
0.80437648 -1.3915139 1.2462196 785.66669
0.93066132 -1.3745321 1.2025096 717
0.86588937 -1.3142772 1.2327943 1884.4287
0.96806204 -1.3042301 1.2196729 1145.6924
1.0801939 -1.2643852 1.2223665 815.66669
0.6635825 -1.584101 1.3660955 285.5
0.7660163 -1.463644 1.35886 495
