# .PCD v0.7 - Point Cloud Data file format
VERSION 0.7
FIELDS x y z intensity
SIZE 4 4 4 4
TYPE F F F F
COUNT 1 1 1 1
WIDTH 1
HEIGHT 62
VIEWPOINT 0 0 0 1 0 0 0
POINTS 62
DATA ascii
0.5255419 2.9569662 0.39858723 333
0.61944246 2.9782124 0.43627945 307
0.45195454 3.0314474 0.41424668 253
0.63894486 3.0117176 0.41522238 297.66669
0.80867803 3.007849 0.40166378 290
0.72306168 3.1595058 0.42348632 391
0.84319556 2.93595 0.4508968 234
0.51040781 3.0409942 0.47931445 294
0.68437511 3.0290856 0.49832216 295
0.79872608 3.0376744 0.48613167 289.66669
0.67465824 3.1807368 0.56229806 409
0.58259112 3.3731325 0.55955052 306
0.64214969 3.37588 0.58354551 295
0.76060987 3.3621168 0.56051743 299
0.54267234 3.1388934 0.72259557 285
0.74705648 3.1392517 0.68535924 281
0.81343353 3.1070819 0.74316251 276.5
0.46271402 3.1707625 0.74148577 210
0.54719436 3.3696702 0.67404795 299.80002
0.68377113 3.3746896 0.68719387 297.33334
0.78384483 3.3433609 0.62772566 304.5
0.50374079 3.455749 0.61584425 283
0.55786461 3.1232178 0.79110909 275
0.71512294 3.1035061 0.75981617 406
0.81764615 3.1232131 0.82084107 267
0.50612551 3.1709592 0.84584796 290
0.54249352 3.3224106 0.86306369 332
0.6647138 3.327455 0.84162819 303.33334
0.78739899 3.3527007 0.83734697 310.33334
0.45212623 3.476325 0.86240131 241
0.61238992 3.1249557 1.0140557 355
0.85599375 3.1305623 0.97381133 410
0.43964297 3.2456293 0.99011397 265
0.48885989 3.2435369 0.98095244 294.33334
0.66250527 3.2607028 1.001694 313.80002
0.81459045 3.2081134 0.94294453 279.66669
0.5397284 3.3446932 0.96289909 308.33334
0.71166033 3.3397508 0.95859373 314
0.80697984 3.4000132 0.9968977 311
0.57131481 3.1457214 1.1907784 339
0.81204259 3.1308255 1.1455638 317
0.40396675 3.2773871 1.171774 293
0.51520485 3.2121549 1.1133125 308.5
0.68828398 3.1753199 1.1360863 321.5
0.81213629 3.1893244 1.1048566 291
0.55980557 3.1357007 1.2740358 330.33334
0.69145715 3.1232917 1.2680809 329.5
0.80846417 3.1336813 1.2591051 323
0.42129081 3.2298222 1.2852035 295
0.49778044 3.176538 1.2410574 323.66669
0.71326488 3.1620407 1.2977115 304
0.82425416 3.1860073 1.3300642 307
0.70901 2.995055 1.4491341 272
0.59649038 3.057076 1.4092208 303
0.64748538 3.0628626 1.4518549 285.39999
0.44771647 3.1546903 1.3861502 228
0.55202138 3.1607776 1.3969514 279
0.66302615 3.1618443 1.3918626 305
0.79632664 3.1881998 1.4215165 305
0.69215375 2.9908803 1.5314304 226
0.56143844 3.0958905 1.5410303 251
0.64648449 3.0153804 1.5761741 290.33334
