# .PCD v0.7 - Point Cloud Data file format
VERSION 0.7
FIELDS x y z intensity
SIZE 4 4 4 4
TYPE F F F F
COUNT 1 1 1 1
WIDTH 1
HEIGHT 64
VIEWPOINT 0 0 0 1 0 0 0
POINTS 64
DATA ascii
0.15432101 1.3415358 0.293046 323
0.13102049 1.3616765 0.29562905 339
0.18551804 1.4771333 0.2751258 259
0.39617705 1.4456381 0.27130413 456.25
0.18210429 1.502714 0.29950824 267
0.3548992 1.5345155 0.27209914 345
0.46710527 1.5453407 0.24115497 283.5
0.12151753 1.3036706 0.38088843 628
0.17578374 1.3045206 0.37881386 560.16669
0.10102832 1.3843234 0.37128466 351
0.21434987 1.4310381 0.37155956 344.5
0.37980828 1.4396822 0.37403759 457.26315
0.45007503 1.4266644 0.38322297 329
0.29080012 1.537117 0.34767932 357.66669
0.35703599 1.5459424 0.36163756 278
0.46813095 1.5411792 0.41066447 287
0.12584877 1.2962499 0.51646119 835.36365
0.19291365 1.2903191 0.52570319 815.61115
0.36362144 1.3459873 0.5685336 783
0.28817901 1.4314096 0.518197 566.40002
0.35733879 1.3992356 0.52461064 645.30304
0.460244 1.5203424 0.48931661 281.5
0.21829735 1.1951262 0.7277118 663
0.12396349 1.2841495 0.67515421 630.63635
0.2186691 1.2759155 0.68110991 837
0.33807784 1.332675 0.7184096 826.5
0.072874032 1.4136133 0.74529183 295
0.28245813 1.3986292 0.64290625 651.5
0.37288478 1.3769647 0.66170263 698.26672
0.46409214 1.4599422 0.66304094 416.33334
0.48362488 1.5699937 0.67820859 295
0.22207868 1.1827396 0.85289472 3445
0.12036581 1.2865334 0.81874126 552.30774
0.23187488 1.2544825 0.82255828 1569.0476
0.34869131 1.2917387 0.83773178 1484.037
0.070849225 1.3822565 0.81977028 380.66669
0.42392138 1.4019228 0.81848031 837.22223
0.45172593 1.444621 0.83991307 1045.6667
0.44607496 1.5073724 0.76805019 529
0.11204488 1.2790021 0.9702574 657.21051
0.22185834 1.2904916 0.98147982 765.75
0.34659663 1.294274 0.98066598 914.77777
0.078053847 1.3774266 0.94493008 288
0.41065353 1.3847938 0.99000901 628.16669
0.46361303 1.4583871 0.9351598 450
0.47845146 1.5097744 1.0073552 665
0.1152387 1.2972466 1.1388975 547.16669
0.22280301 1.299316 1.1274481 721.26666
0.33107275 1.3182838 1.1232747 517.625
0.062502265 1.3946271 1.1313561 261
0.25123852 1.352569 1.1908677 383
0.40479642 1.3798965 1.132095 608.42859
0.46421707 1.4305298 1.1455095 481
0.50044602 1.5398246 1.1209998 383
0.11878198 1.3213543 1.2367433 412.16669
0.22346038 1.2977968 1.2453487 1058.2917
0.35000655 1.3397975 1.2541153 466.33334
0.10918052 1.3909835 1.3082941 292
0.26795286 1.3775576 1.3170907 380.42859
0.37261897 1.3878392 1.2684427 657.37036
0.47496197 1.4457598 1.2547421 684.40002
0.51128155 1.5920057 1.2688807 356.5
0.26673913 1.4048182 1.3790778 322.60001
0.3775222 1.4505227 1.3762797 287.75
