# .PCD v0.7 - Point Cloud Data file format
VERSION 0.7
FIELDS x y z intensity
SIZE 4 4 4 4
TYPE F F F F
COUNT 1 1 1 1
WIDTH 1
HEIGHT 69
VIEWPOINT 0 0 0 1 0 0 0
POINTS 69
DATA ascii
0.10418382 2.3693018 0.26095891 313.66669
0.22647014 2.3059049 0.27748436 304.75
-0.049174741 2.5253606 0.2481052 299
0.085381351 2.4751177 0.27102709 282.33334
-0.074266374 2.5684242 0.26464561 287.39999
0.11806133 2.3573847 0.33789805 315.5
0.17937443 2.3670318 0.38338906 312.57144
0.35058874 2.331413 0.42013183 264
-0.042946905 2.5240312 0.36482513 307
0.080198616 2.4559197 0.39036858 278
0.25331354 2.4395587 0.44114861 266.66669
-0.051184818 2.5866115 0.35303041 304.66669
0.01463943 2.5933752 0.41581357 301
0.13366586 2.359678 0.55348462 337
0.20205115 2.3490686 0.52309537 317.90909
0.33225462 2.3842428 0.46878171 299
-0.016745638 2.5226398 0.52909875 289
0.080938824 2.4971666 0.52324945 315
0.2501342 2.4617765 0.51217395 287
0.32302558 2.4408512 0.50835037 293.25
-0.031913631 2.5770864 0.52489734 290.5
0.036757957 2.563895 0.50172973 305.66669
0.09316887 2.3528192 0.67106652 369.72729
0.2199305 2.3506217 0.66601062 338
-0.0091206431 2.5309925 0.64426279 321
0.01062265 2.4163823 0.68414903 323
0.22246891 2.4481332 0.72857851 287
0.010314658 2.5850406 0.67239958 306
0.26558816 2.5914836 0.70861238 200
-0.045041591 2.3782775 0.86177355 353
0.080302387 2.3362751 0.82271969 396.83334
0.19369666 2.3307915 0.8124668 345
-0.044160306 2.4230547 0.8291558 323
0.18709233 2.4629414 0.82572126 338.5
-0.051203847 2.6362083 0.81041193 297
0.26981854 2.6897216 0.8481679 262
0.36271843 2.6301532 0.77206331 327
-0.01586929 2.3711619 0.97607327 349
0.070284829 2.3385186 0.98294854 347.44446
0.17286165 2.3280661 0.92398894 335
-0.015437335 2.4135699 0.95332479 321
0.11894698 2.4195828 0.98740488 349
0.20192073 2.4576988 1.0107737 329
0.22006305 2.6779494 0.95710731 287
0.24415192 2.7134013 0.9709003 287.66669
0.066236362 2.3249073 1.1338145 345.76926
0.18781005 2.3767021 1.1862335 353
-0.060983907 2.4578776 1.1371109 305.66669
0.13785814 2.4096498 1.1097407 379
0.19849563 2.4411314 1.1054164 363.5
0.31606889 2.4714551 1.0558733 358
0.25246543 2.5964203 1.1025008 278.66669
0.30421752 2.7247365 1.0553309 243
-0.016185313 2.3443489 1.2249558 321
0.074093685 2.310276 1.2876225 389.39999
0.18593964 2.3751433 1.2843099 420
0.1491186 2.4706576 1.225799 309
0.21438609 2.445868 1.2699661 387.80002
0.27971005 2.6265202 1.2833314 338.5
0.08066462 2.3558731 1.4009789 354.25
0.11614305 2.4480679 1.4293206 317
0.20100328 2.4682355 1.4417405 319.25
0.2532956 2.5685627 1.3749907 309
0.14553207 2.3754969 1.6481745 251
0.21729961 2.382607 1.6330004 350.66669
0.12320664 2.4554598 1.5645721 280
0.22252892 2.4404676 1.5652928 283.5
0.24848762 2.3830411 1.6851023 352
0.23387226 2.4468143 1.661725 274
