# .PCD v0.7 - Point Cloud Data file format
VERSION 0.7
FIELDS x y z intensity
SIZE 4 4 4 4
TYPE F F F F
COUNT 1 1 1 1
WIDTH 1
HEIGHT 87
VIEWPOINT 0 0 0 1 0 0 0
POINTS 87
DATA ascii
0.71693182 2.2859979 0.095379367 420
0.77804232 2.3678832 0.10061491 310
0.59153771 2.4961081 0.10338742 394
0.69413823 2.4467139 0.099303439 421
0.53124118 2.6733575 0.12827095 355.5
0.68621516 2.5537262 0.10564786 394
0.82378834 2.6222472 0.11449968 279.33334
0.42332011 2.7234666 0.131951 263
0.54720426 2.7106366 0.11720705 244.5
0.64606655 2.8035643 0.12641926 300
0.81038368 2.7204111 0.13786036 247
0.68984282 2.8940675 0.088507667 343.5
0.70586169 3.0328946 0.14291511 357
0.75648654 3.1143942 0.12837332 265
0.42005679 2.6567369 0.2252595 436
0.8234874 2.6433573 0.22821292 343.5
0.41355336 2.7107854 0.21843508 289
0.59376043 2.7856522 0.16437414 297
0.62912893 2.8028395 0.23224947 303.57144
0.69726384 2.9046624 0.18596163 301
0.740897 3.0837595 0.23370674 307
0.76757705 3.1188416 0.22978263 286.5
0.42151102 2.6598928 0.32488829 371
0.53163636 2.6675584 0.44123825 367
0.67578673 2.6563299 0.41346371 423
0.78336024 2.6336575 0.41860449 309.5
0.43074936 2.7329268 0.38918656 303.25
0.56492126 2.7989786 0.3757928 314.25
0.64751148 2.8261268 0.37373075 306
0.81709504 2.7271428 0.44387576 275
0.58031929 2.8556941 0.33669072 263
0.77544725 3.0902424 0.35433626 301.5
0.55511516 2.6697571 0.48933175 390.5
0.68727267 2.6494179 0.49117896 430
0.8030715 2.6684382 0.52851009 314
0.44678083 2.7669425 0.46125633 280
0.5058282 2.7447045 0.53715843 307.80002
0.64177841 2.7875996 0.59849274 305
0.54221874 2.8659382 0.56248629 269
0.70591664 2.8938942 0.56567794 420
0.79207778 2.9870591 0.59107941 321
0.4443624 2.6845732 0.74841475 84
0.5660907 2.7775974 0.67489594 308.66669
0.62922513 2.8010499 0.64474428 305
0.64357078 2.9257395 0.74683917 275
0.81925172 2.9220061 0.66913414 378.66669
0.73150104 3.0694902 0.67975175 313.66669
0.81081975 3.0319421 0.69683427 303
0.50978899 2.8201556 0.80155206 292.33334
0.67629141 2.7302663 0.77922612 626
0.77772254 2.7571676 0.81217182 286.33334
0.53196001 2.8943806 0.76260912 261
0.72943926 2.9365211 0.84107846 316
0.5938344 3.0072479 0.84050614 283
0.69374919 3.0139554 0.82385367 321
0.82091677 3.0513921 0.84584135 298
0.90720737 3.0945292 0.87853396 275
0.7252934 3.1542823 0.76535571 285
0.50422788 2.845588 0.97237706 301
0.67029482 2.8189383 1.0102801 359
0.80861664 2.7979324 0.96786565 301.80002
0.51130092 2.9006195 0.93445289 271
0.66788763 2.9478717 0.9961099 317.80002
0.76195753 2.9515769 1.0014729 317
0.57993209 3.0389533 0.92376512 263
0.64470708 3.0342224 0.94228584 311
0.92084146 3.0711238 0.95064676 422
0.68973446 2.8261411 1.1214345 361
0.82377237 2.8090551 1.1434536 338.42859
0.52724707 2.9210546 1.1278723 333.625
0.64414531 2.8861156 1.1290724 352.42859
0.7691986 2.8869333 1.086805 333
0.48440015 3.0092413 1.169715 265
0.68852389 2.8223546 1.267159 375.57144
0.81547254 2.7963252 1.2566615 357
0.53117228 2.8878777 1.271956 367.28574
0.6544261 2.8648748 1.3314395 321
0.59617603 2.8224468 1.4796109 295
0.65683055 2.8086281 1.4251016 313
0.78897458 2.7956142 1.3615022 361
0.56889015 2.9009657 1.3849809 313.66669
0.70125204 2.8863354 1.4484594 293.5
0.90724564 2.8569162 1.3674172 259
0.58398712 2.7403755 1.5949293 364
0.67103755 2.8127551 1.5632257 286.83334
0.57295609 2.8755908 1.5440514 360.5
0.75708652 2.8742826 1.5511588 243
