# .PCD v0.7 - Point Cloud Data file format
VERSION 0.7
FIELDS x y z intensity
SIZE 4 4 4 4
TYPE F F F F
COUNT 1 1 1 1
WIDTH 1
HEIGHT 85
VIEWPOINT 0 0 0 1 0 0 0
POINTS 85
DATA ascii
2.0770481 -4.6615176 0.050955176 292
2.0746362 -4.6134181 0.10796984 244.66667
2.1515 -3.9076071 0.034871787 248
2.0382178 -3.8735731 0.13001147 216
2.146853 -3.8691931 0.10974731 324.5
2.1202421 -4.6549168 0.22119199 239
2.0825255 -4.6000738 0.22604854 254
2.0717602 -3.9250183 0.28855604 272
2.1341426 -3.9102011 0.23493227 261
2.0694549 -3.8976293 0.20383582 408
2.1553905 -3.8549876 0.27074376 404
2.0580969 -4.7055035 0.43584487 192
2.0933764 -4.5806379 0.37020132 422.5
2.0781975 -3.9145315 0.37550819 400
2.1228359 -3.9190264 0.36862835 277
2.1641619 -3.8501627 0.35715586 288
2.0833495 -4.7022529 0.53948557 344
2.0697744 -4.3477068 0.5087713 104
2.0975049 -3.9302192 0.46634361 249
2.1442802 -3.9276929 0.52336437 258.33334
2.0745602 -4.6099539 0.64246255 270
2.1127462 -4.5042744 0.73704159 280
2.1083281 -4.3786001 0.61119342 340
2.0874617 -4.2671371 0.70871019 348
2.0999076 -4.1342301 0.68923378 346
2.0640054 -3.9322016 0.66730291 406
2.1170304 -3.9159794 0.65800697 281
2.0691669 -4.6943779 0.88851476 392
2.1065264 -4.5854816 0.80715871 322
2.1106756 -4.4606462 0.84602493 312
2.1018274 -4.2388306 0.81248462 362
2.1148448 -4.1177721 0.84650099 313
2.0951908 -3.9459269 0.76793623 273
2.1259627 -3.9122825 0.82873702 281
2.0694528 -4.6789804 1.0077441 215
2.0965369 -4.4560986 0.96397632 340
2.1138556 -4.4291425 0.9569701 314
2.087352 -4.1443496 0.90925288 372
2.104007 -4.121285 1.0147763 280
2.152113 -3.9277496 0.97094798 273
2.071053 -4.6225424 1.1204112 249
2.0954936 -4.3848972 1.0690086 328
2.1031597 -4.3638749 1.0638552 352
2.0973175 -4.3214216 1.1743947 360
2.110692 -4.3416114 1.1775444 352
2.0428905 -3.9255826 1.0908254 316
2.1648107 -3.9109006 1.0756295 422
2.0518334 -3.8940032 1.0828583 400
2.0879354 -4.5786533 1.2756875 339.33334
2.0889039 -4.2428985 1.2754903 362
2.0916126 -3.9458129 1.2384224 273
2.1093304 -3.9500897 1.3129144 285
2.1081104 -4.5901928 1.4245982 324
2.0950029 -4.4703698 1.4568561 326
2.1002727 -4.2370753 1.3920095 380
2.0927391 -4.1580348 1.449599 308
2.1195993 -3.9281521 1.4186071 282
2.0526352 -4.7016349 1.59075 278
2.1114299 -4.5297489 1.5990818 334
2.0876608 -4.3806129 1.5561029 334
2.0734487 -4.2771769 1.6469064 196
2.0990157 -4.1553888 1.6055013 356
2.0389123 -3.9333825 1.5379637 362
2.1435318 -3.9284191 1.567229 271.66669
2.0662127 -4.7168779 1.7259717 353
2.0522244 -4.580327 1.7479695 298
2.1132479 -4.4891977 1.7130424 224
2.0706267 -4.3423076 1.7904049 242
2.083931 -3.9734354 1.6607735 277
2.1338999 -3.9429483 1.7598469 261
2.0362735 -4.6864767 1.9150276 279
2.05391 -4.507762 1.8500396 364
2.0749345 -4.3967781 1.9325349 385
2.0645158 -4.1244044 1.8307394 273
2.3141336 -4.0926933 1.9236245 376
2.0581222 -3.9996524 1.8965522 415
2.1357362 -3.9687755 1.8810643 287
2.0576515 -4.5726466 2.000309 374
1.9354944 -4.2168269 1.9904264 386
2.0500307 -4.2102151 1.9809676 398
2.3421388 -4.2615333 1.9886166 438
1.9709218 -4.1586308 1.9647298 231
2.0869346 -3.9810424 1.9975741 273
2.2089388 -3.955044 1.9831101 200
2.1227334 -3.8857265 1.9565475 190
