# .PCD v0.7 - Point Cloud Data file format
VERSION 0.7
FIELDS x y z intensity
SIZE 4 4 4 4
TYPE F F F F
COUNT 1 1 1 1
WIDTH 1
HEIGHT 74
VIEWPOINT 0 0 0 1 0 0 0
POINTS 74
DATA ascii
3.5378387 1.1686066 0.064144112 313.5
3.103982 1.2744459 0.067779936 317
3.1811752 1.2565553 0.095611677 315
3.5293086 1.276885 0.10606927 210
3.0917773 1.361635 0.065962508 307.66669
3.4334266 1.161525 0.23697293 347
3.5193019 1.1130642 0.20295584 292
3.06863 1.297173 0.21509473 394.33334
3.2327731 1.2723645 0.24363007 274
3.4920464 1.2484473 0.21092662 301.66669
3.0717978 1.3534163 0.29533103 409
3.3799717 1.1411201 0.38076305 340
3.5241823 1.1098394 0.37621975 303
3.1245944 1.2995818 0.39898661 394.5
3.2559185 1.2718539 0.3932851 326.25
3.3974931 1.2284021 0.3991414 239.33334
3.1452785 1.3860409 0.36701852 331
3.1821861 1.4007808 0.44299477 343
3.2748628 1.1667724 0.57942945 349
3.3275876 1.1384563 0.53870344 340.33334
3.4885125 1.078921 0.53767896 319.5
3.1992569 1.2772043 0.54863942 384.25
3.4459674 1.2549828 0.50890535 245
3.1640334 1.387206 0.55883145 368
3.2267687 1.1311795 0.70827657 317
3.3125777 1.0968463 0.65393758 329
3.495249 1.0670415 0.66139489 412
3.1770957 1.2622308 0.69697261 322.42859
3.2067003 1.4062538 0.6808461 297.5
3.2224681 1.0493442 0.79915404 327
3.3582835 1.0123304 0.86228371 280.66669
3.5119951 0.98894763 0.82282597 372
3.210921 1.1365589 0.85225469 317
3.3154881 1.081926 0.85162657 304
3.5996232 1.0821991 0.84094679 269
3.1456778 1.2720404 0.81828165 333
3.1802211 1.2323354 0.86827344 306.33334
3.2508807 1.4159619 0.80637574 289
3.2962437 1.5162036 0.86507809 233
3.3082356 1.5360847 0.86896908 406
3.3989844 0.96043998 1.0072831 236
3.5621214 0.97987711 0.93880737 285
3.2296915 1.1440089 1.0040314 307
3.3284197 1.0730224 0.9965207 300.33334
3.149868 1.244069 0.96857774 323
3.207988 1.2724783 0.98026586 299.5
3.2384377 1.3904228 0.92305034 297
3.3419056 1.4451938 0.99731445 301
3.3237901 1.5355874 1.0379031 392
3.3597901 0.98712403 1.1358932 295
3.2539854 1.1300886 1.1385591 305
3.3273408 1.0782557 1.1255338 307.5
3.2186787 1.2608755 1.1038253 303
3.2665515 1.3933035 1.1266384 290.5
3.3015723 1.4700652 1.1861911 287
3.3627582 1.5289609 1.0970125 282
3.2962198 1.0131737 1.3268819 331
3.3255229 1.0170501 1.2645116 309
3.264225 1.1477357 1.2564758 305.80002
3.3168705 1.1137799 1.3015164 302.33334
3.2565875 1.2873638 1.2583859 301.5
3.2606781 1.4142369 1.270858 329.33334
3.3172369 1.4544072 1.3413731 271
3.4083049 1.0355035 1.393852 272
3.2841828 1.1493222 1.4798564 326
3.3510032 1.1358252 1.4184985 271
3.2753634 1.2627308 1.4331018 309.5
3.331351 1.260174 1.4258904 272.33334
3.3469067 1.1649041 1.562629 331.25
3.281116 1.2282929 1.5568162 314.5
3.3207884 1.2287855 1.6273243 269
3.4039288 1.3688924 1.5917945 308.5
3.4280472 1.1988218 1.6549159 269
3.3677988 1.2836989 1.6731805 324.66669
