# .PCD v0.7 - Point Cloud Data file format
VERSION 0.7
FIELDS x y z intensity
SIZE 4 4 4 4
TYPE F F F F
COUNT 1 1 1 1
WIDTH 1
HEIGHT 53
VIEWPOINT 0 0 0 1 0 0 0
POINTS 53
DATA ascii
3.1144249 -0.15063988 0.12190565 255
3.2426431 -0.21053524 0.078427911 298
3.1085553 -0.13421062 0.091981843 329.5
3.181814 -0.12770312 0.053271025 305
3.061692 -0.15044458 0.18843091 377
3.2003946 -0.19796324 0.21212474 341.75
3.3215361 -0.24455318 0.23984489 305
3.1978865 -0.12059639 0.17838475 370
3.4300537 -0.041602351 0.21524671 371.25
3.4812 -0.050965488 0.15762913 425
3.4941878 0.028812531 0.19359659 269.5
3.2569222 -0.19256954 0.33581409 361
3.3751655 -0.2191231 0.35863495 347.66669
3.4242854 -0.029620819 0.34392858 414
3.5012736 -0.10526615 0.38115746 426
3.509232 0.036051944 0.34294689 287
3.4000518 -0.22490188 0.50890648 384.33334
3.5025907 -0.24630527 0.46040455 337
3.3910961 -0.044986378 0.50163084 404.20001
3.494802 -0.11189748 0.48436129 300.33334
3.5240078 0.041468602 0.4588269 261
3.3686399 -0.22355647 0.64660043 392.5
3.3503067 -0.06698525 0.64293748 397.75
3.3625541 0.047366586 0.64327174 178
3.5062032 0.05143775 0.69552213 305
3.433661 -0.34732506 0.8239032 305
3.4707649 -0.34112245 0.77639735 307
3.2388515 -0.20960806 0.84445155 1586.5
3.3141387 -0.22035253 0.77317178 408
3.2483439 -0.059458748 0.8649404 2522.3335
3.3322535 -0.069855265 0.77949637 392.33334
3.3616171 0.047465004 0.80815923 352
3.4898431 0.054495446 0.77299976 245
3.3930295 -0.33715975 0.95728779 338
3.2740912 -0.21482293 0.99185848 382.33334
3.3044243 -0.22502574 1.0101109 359.5
3.2945726 -0.10291858 1.0052447 404
3.3236377 -0.056337371 0.9928174 377
3.3682542 0.044805374 0.96736783 361.39999
3.4051776 -0.35289234 1.1088074 369.66669
3.3359711 -0.2239434 1.1461132 712.11115
3.2715287 -0.109055 1.1724731 1543
3.3299837 -0.065979064 1.1179153 406.5
3.357434 0.037260406 1.137653 599.79999
3.3630464 -0.23945506 1.2931184 623.20001
3.3471348 -0.1072681 1.286652 429.00003
3.3453197 0.013767149 1.278743 389
3.4445138 -0.21823478 1.4783959 392
3.4879665 -0.22186387 1.4328594 348
3.4402921 -0.14396946 1.4150585 374
3.5008831 -0.094110668 1.4427648 354.5
3.5260005 -0.18833622 1.5338817 280.5
3.5505104 -0.10550169 1.5403055 287.5
