# .PCD v0.7 - Point Cloud Data file format
VERSION 0.7
FIELDS x y z intensity
SIZE 4 4 4 4
TYPE F F F F
COUNT 1 1 1 1
WIDTH 1
HEIGHT 64
VIEWPOINT 0 0 0 1 0 0 0
POINTS 64
DATA ascii
3.5647306 0.42513621 0.04595907 366.5
3.6434669 0.3848131 0.11090071 299
3.8770227 0.36560678 0.091375336 339
3.9726648 0.32117447 0.082391009 329
3.5959184 0.46048027 0.079181969 363
3.8940902 0.26519418 0.29583615 327
3.9483147 0.27460545 0.20878017 311
3.5818636 0.4159838 0.19146253 365
3.7479503 0.40021649 0.22055438 301
3.8916855 0.35266221 0.2971431 345
3.9179492 0.33507356 0.23931633 340.33334
3.6848025 0.47574261 0.18658674 301
3.8627667 0.25760543 0.38156921 349
3.9347293 0.23078649 0.38098896 313
3.6414042 0.41187662 0.34535283 367
3.8071394 0.38593706 0.35632563 332.33334
3.915453 0.32590491 0.38243747 343
3.7102461 0.48293257 0.34583443 320
3.8646476 0.24032091 0.51154929 362.5
3.7205288 0.4126797 0.46824545 339
3.8088012 0.3915261 0.53440511 359.5
3.9063148 0.33566493 0.49973363 329.66669
3.7954597 0.50188124 0.5302223 327
3.9310291 0.14826487 0.64653683 293
3.834794 0.23606326 0.68467188 334
3.917594 0.15107024 0.73514485 420
3.7783477 0.37089899 0.68967158 367.28574
3.9346664 0.33364189 0.65004754 307
3.8079987 0.5015232 0.67561293 314.33334
3.9003468 0.51726019 0.74338496 309
3.9443257 0.14108771 0.82775998 269
3.6487789 0.24477188 0.87726593 1629.6667
3.8104198 0.20446405 0.8129319 339.66669
3.6953149 0.36309621 0.85357314 1665.8
3.757782 0.36106896 0.81082374 397
3.6927803 0.46914601 0.89155382 2363
3.8330979 0.502087 0.82496011 336
3.8572772 0.1308511 0.94782686 334
3.7172573 0.24682924 0.9705748 701
3.8160203 0.1564239 0.98504037 383
3.9132557 0.15747336 0.91320807 297
3.7221375 0.35141295 0.9747411 606
3.7923751 0.42348737 0.98927993 319
3.831778 0.50156784 0.97021532 325
3.8480616 0.10824906 1.1317768 360
3.9276791 0.080294706 1.0904001 303
3.7962513 0.22673635 1.1096656 452.5
3.726661 0.37005198 1.1004879 383
3.7824459 0.37967059 1.1122912 394.5
3.793314 0.50181276 1.1291953 355.60001
3.9401853 0.58615339 1.1110823 251
3.9229953 0.11718949 1.2600225 289
3.7273314 0.19873944 1.2152028 2299
3.7994571 0.22777607 1.2788979 586.28577
3.731853 0.38954806 1.249836 1061
3.7807763 0.38370001 1.2745584 371.75
3.8137326 0.48465687 1.2878338 322.5
3.8535342 0.27523988 1.4435664 358.5
3.9255545 0.26602161 1.4639593 364.5
3.8534787 0.35570803 1.4472179 283.25
3.951138 0.24791229 1.5582523 246.66667
3.8847463 0.35620824 1.5663711 295
3.9197025 0.35732859 1.6118872 350.5
3.9661698 0.27117538 1.657943 263
