# .PCD v0.7 - Point Cloud Data file format
VERSION 0.7
FIELDS x y z intensity
SIZE 4 4 4 4
TYPE F F F F
COUNT 1 1 1 1
WIDTH 1
HEIGHT 55
VIEWPOINT 0 0 0 1 0 0 0
POINTS 55
DATA ascii
4.046299 2.4970114 0.10752049 295
4.1003675 2.4740663 0.035900146 355.66669
3.8869407 2.6480672 0.13391897 295
3.9730468 2.6568871 0.092367828 283
4.1071854 2.6316662 0.0089467764 342.5
3.7510726 2.7687666 0.061877429 261
4.0217676 2.4744992 0.20807636 301
3.8748207 2.6274061 0.23244342 298
4.0043659 2.5547426 0.21511006 295
3.6848826 2.7656131 0.19671559 301
3.9620323 2.5148296 0.37023336 300
3.8614604 2.5963879 0.38424376 302
3.7219131 2.8177133 0.36308336 301
3.9663711 2.5061941 0.52731633 293
3.8611238 2.6018183 0.54190153 323.33334
3.7260394 2.8164136 0.51973075 284.5
3.8045986 2.7276702 0.52311432 293
3.7621958 2.5414453 0.74941498 289
3.9820585 2.5087125 0.63525605 297
3.6873629 2.6535013 0.65979034 287
3.8313024 2.5897934 0.64818573 288
3.9095595 2.5653317 0.64353156 291
3.6912973 2.7632246 0.6745401 280
3.8381093 2.7068629 0.66323906 299
3.6986289 2.4641597 0.84289169 252
3.7286966 2.619349 0.79652518 289.66669
3.8842318 2.5959213 0.75707483 261
3.7051847 2.7576368 0.78169906 284
3.7614651 2.7979136 0.89829147 267
3.5845795 2.8555343 0.79831648 308
3.66029 2.5085113 0.95420623 222
3.7946913 2.522712 0.96171534 289
3.7023497 2.669055 0.98440969 273
3.8095722 2.8253024 1.01632 275
3.6597848 2.882719 0.96788681 268
3.7247283 2.4657011 1.1253443 283
3.6855898 2.6313975 1.1384048 309.25
3.7579751 2.5592468 1.074605 275
3.8515823 2.8474848 1.1360515 271
3.7151229 2.8920279 1.1389345 271
3.7815504 2.4922819 1.2763432 275
3.6811438 2.603653 1.2917577 334.5
3.8567152 2.8402483 1.2487719 342
3.7218714 2.872787 1.2472407 267
3.8175783 2.4970403 1.38708 341.5
3.746491 2.6469009 1.4147292 247
3.8894045 2.7363138 1.4521197 273
3.7553582 2.8758574 1.3619084 273
3.7829909 2.6459072 1.5248283 224
3.9684975 2.6252255 1.543995 265
3.7212477 2.7997487 1.5580417 320
3.863101 2.7130742 1.5524775 293
3.8659215 2.6931241 1.6538515 281
4.0391726 2.6538982 1.669381 253
3.7811096 2.824748 1.6787503 259
