# .PCD v0.7 - Point Cloud Data file format
VERSION 0.7
FIELDS x y z intensity
SIZE 4 4 4 4
TYPE F F F F
COUNT 1 1 1 1
WIDTH 1
HEIGHT 52
VIEWPOINT 0 0 0 1 0 0 0
POINTS 52
DATA ascii
-0.49261394 2.717181 0.28839442 275
-0.37124428 2.7243242 0.27646071 285
-0.27718464 2.7864232 0.27424815 241
-0.48077795 2.671627 0.38306221 292.33334
-0.38846272 2.6844242 0.38574323 303
-0.48101673 2.8029823 0.36015171 262.33334
-0.36521414 2.7317154 0.37401596 302.27274
-0.25089663 2.7701185 0.38448676 295.66669
-0.48782173 2.8571951 0.38119304 285
-0.47100094 2.65991 0.45663393 275
-0.34266135 2.6857815 0.47222167 295
-0.24006334 2.6905105 0.59372789 323
-0.47699142 2.7164028 0.54349297 277.66669
-0.3771649 2.7515361 0.53972858 286.33334
-0.23286599 2.7431564 0.51981121 306.33334
-0.46585444 2.9735942 0.56684595 288
-0.49732652 3.0212297 0.49743065 281
-0.46963224 2.7467279 0.67053175 273
-0.35167855 2.7709668 0.67621964 283.57144
-0.19263437 2.7367923 0.66924512 307
-0.1388472 2.7547765 0.7490474 305
-0.38761011 2.8921986 0.67548752 278.5
-0.47407272 2.8061097 0.76340866 265
-0.38237321 2.7970078 0.83383441 278.71429
-0.22836766 2.775728 0.8350538 276.16669
-0.11875719 2.7732825 0.84310925 284
-0.37983683 2.8898478 0.81473327 283
-0.38844454 2.8187408 0.97280502 276.20001
-0.20177817 2.8098321 0.97032809 270.5
-0.094746456 2.8345315 0.98555267 289
-0.32732207 2.879256 0.98658359 271.66669
-0.25516853 2.8818576 0.99429798 287
-0.39381793 2.841635 1.1321704 289
-0.24762794 2.8377454 1.0952522 348.5
-0.068022996 2.8227766 1.0864208 283
-0.35448 2.8852527 1.1118358 272
-0.22476046 2.8876014 1.1125659 281
-0.10183705 2.8697724 1.1426008 272
-0.41412234 2.8142798 1.2863619 346.5
-0.26909193 2.8398774 1.214932 408
-0.39313662 2.9073424 1.2633615 282
-0.21543129 2.9198043 1.2689056 268.20001
-0.079408236 2.9032164 1.2624394 304
-0.31970209 3.0612164 1.2398579 260
-0.24909118 2.9176822 1.4724511 386
-0.061249167 2.9886689 1.4045399 263
0.010049731 2.9313536 1.4907979 301
-0.24381499 3.068378 1.3904405 257
-0.24105105 2.9394531 1.5606694 388
-0.066237479 2.9454772 1.5153215 340
0.023959756 2.9866254 1.5897983 257
0.041210562 3.0072155 1.6769155 261
