# .PCD v0.7 - Point Cloud Data file format
VERSION 0.7
FIELDS x y z intensity
SIZE 4 4 4 4
TYPE F F F F
COUNT 1 1 1 1
WIDTH 1
HEIGHT 49
VIEWPOINT 0 0 0 1 0 0 0
POINTS 49
DATA ascii
-0.40122014 2.4801965 0.38554677 555
-0.20643678 2.4926143 0.41264543 376.33334
-0.57654649 2.6720667 0.38404962 289.71429
-0.69335794 2.8483646 0.41845453 258
-0.56940329 2.706794 0.37503159 291
-0.3774268 2.4752691 0.50900328 310
-0.22100705 2.5108345 0.51385194 306.25
-0.61169326 2.6654289 0.48266646 237
-0.54877639 2.6717162 0.52945632 276.75
-0.38787934 2.581089 0.52440035 276
-0.61238241 2.7014096 0.52346313 267
-0.39784181 2.5199959 0.68898475 328
-0.23296067 2.540189 0.69152761 311
-0.54306245 2.6385128 0.65445006 292.42859
-0.33745855 2.5779672 0.6980468 280.33334
-0.48217729 2.7189293 0.69967258 275
-0.34495655 2.7375464 0.73045439 331.5
-0.57010925 2.5019965 0.81954122 361
-0.53354824 2.6351736 0.83386159 296.14288
-0.33036897 2.6392636 0.77896047 169.5
-0.23405322 2.5844536 0.7526207 251
-0.47245973 2.7774391 0.82481903 303.25
-0.35488141 2.7935715 0.84304476 334
-0.21986023 2.7785079 0.79014748 324.33334
-0.37279016 2.5233459 1.0065899 292.33334
-0.52404356 2.6307933 0.98360205 295.33334
-0.41867086 2.7927523 0.94740665 338.5
-0.22989967 2.8256185 0.90868682 374
-0.48348704 2.8862727 0.97590709 275
-0.38550445 2.9121449 1.0300448 273
-0.27094349 2.8952417 0.96423149 281
-0.42435059 2.5262027 1.1456023 288
-0.5255661 2.6141706 1.1205319 294.5
-0.37793896 2.6431212 1.1959639 286
-0.35566199 2.7958019 1.1503808 299.66669
-0.47549286 2.9150443 1.0903113 284
-0.36552697 2.8685474 1.0922328 304
-0.25143445 2.9018815 1.1090891 284
-0.550753 2.6123471 1.2361461 289
-0.34557322 2.6123374 1.2899988 303
-0.36876142 2.8381624 1.240416 257.5
-0.46472219 2.93677 1.2085724 251
-0.3379842 2.8680534 1.2791431 298
-0.23365439 2.9269447 1.267104 269
-0.35512462 2.6273446 1.4473405 271
-0.26690894 2.6524892 1.4173526 316.66669
-0.23828301 2.7072825 1.4789045 243
-0.31668043 2.6093614 1.5812458 252
-0.23386626 2.6386526 1.5542593 270.33334
