# .PCD v0.7 - Point Cloud Data file format
VERSION 0.7
FIELDS x y z intensity
SIZE 4 4 4 4
TYPE F F F F
COUNT 1 1 1 1
WIDTH 1
HEIGHT 57
VIEWPOINT 0 0 0 1 0 0 0
POINTS 57
DATA ascii
1.4390281 -2.6723583 0.071444139 269.57144
1.565177 -2.6298242 0.11158744 263.5
1.6619669 -2.5533147 0.12653899 245
1.0228618 -2.4239099 0.099952303 357
1.1349726 -2.44016 0.09152066 269.1579
1.1623173 -2.3747458 0.072483331 308.66669
1.2217199 -2.3649445 0.080903083 298.75
1.4651494 -2.6660943 0.20575355 261.80002
1.5834277 -2.6064754 0.21902527 279.5
1.0269758 -2.4561357 0.18969257 338.5
1.1351155 -2.4603243 0.20705856 271
1.2167705 -2.4184215 0.21359973 279.39999
1.3567736 -2.5118926 0.28304479 271
1.5997016 -2.5495908 0.29721272 283
1.2574294 -2.3839109 0.22351852 288.20001
1.3519565 -2.797997 0.4141438 424
1.4851539 -2.6068289 0.31948018 288
1.5754721 -2.6237063 0.37867561 323.39999
1.1736832 -2.4377623 0.33854264 286.5
1.270728 -2.447295 0.35453597 270.30002
1.4055471 -2.5208168 0.42509174 271
1.6047276 -2.5450273 0.35515872 291
1.3054843 -2.3908966 0.33879888 299
1.3060873 -2.8530159 0.49095958 247
1.3085386 -2.729147 0.51162958 291
1.6487898 -2.5973451 0.48000759 289
1.7412608 -2.5507762 0.53012943 475
1.298066 -2.4763076 0.52954066 301.80002
1.3878641 -2.5152509 0.50797254 295
1.3469508 -2.3749006 0.52813542 309
1.2666224 -2.75172 0.69024259 277
1.2670513 -2.6220262 0.68304962 298.60001
1.3072662 -2.4602594 0.68724924 313
1.179571 -2.349133 0.69935268 399
1.3181123 -2.3982146 0.62751067 311
1.3620075 -2.3428097 0.64461243 321
1.1960287 -2.7452457 0.76971078 279
1.1769564 -2.6445739 0.85872066 299
1.2156841 -2.5591228 0.80067444 303
1.26526 -2.4409242 0.7704587 312
1.2734408 -2.354039 0.8489145 379
1.1797578 -2.6084099 0.95651412 313
1.2032887 -2.6457462 1.0362509 301
1.1972405 -2.5698316 1.1583974 327
1.2122791 -2.635082 1.1054585 329.5
1.264149 -2.721745 1.2782121 291.25
1.2198164 -2.5888643 1.2706392 321
1.2844269 -2.4482493 1.3163786 379
1.3407178 -2.3755813 1.2510986 370
1.2594825 -2.6534343 1.4010688 305
1.3063745 -2.4780757 1.3947778 327
1.3964576 -2.4984777 1.4449977 331
1.3444161 -2.6247334 1.5255303 297
1.4283786 -2.6070249 1.5819194 283.60001
1.4457474 -2.5220065 1.5748453 279.5
1.3641354 -2.6155629 1.6860342 209.5
1.425193 -2.5184317 1.6670101 359
