# .PCD v0.7 - Point Cloud Data file format
VERSION 0.7
FIELDS x y z intensity
SIZE 4 4 4 4
TYPE F F F F
COUNT 1 1 1 1
WIDTH 1
HEIGHT 115
VIEWPOINT 0 0 0 1 0 0 0
POINTS 115
DATA ascii
0.95155525 1.4821311 0.11108306 323
1.3013165 1.4584076 0.088092893 438.53848
1.4412595 1.4324548 0.12340576 370
1.416533 1.5224918 0.076406874 374.46155
1.5817269 1.6102852 0.023618877 946
1.0427556 1.7779913 0.1265734 268
1.1696494 1.6792872 0.11438109 339
0.74092048 1.1392944 0.24744067 298
0.75493973 1.1500059 0.27896467 341
0.78407735 1.2187119 0.27315319 286
1.2962558 1.426989 0.22669618 453.27274
1.4669057 1.4600729 0.22305544 292.20001
0.78904146 1.6097865 0.22001529 255
1.0091487 1.6260316 0.23064546 351.5
1.1536783 1.6192749 0.23802496 382.14288
1.2952614 1.5863634 0.29960603 373
1.3996127 1.5323439 0.16516446 276.33334
1.0334299 1.6996577 0.20396145 297.5
1.1222444 1.7270559 0.19011085 289.66669
1.3557944 1.6956884 0.25577772 275
0.66398817 1.1272873 0.38236928 1228
0.82163906 1.1135228 0.39092427 969.79999
0.72003937 1.2486182 0.43473294 281
0.83630466 1.2563505 0.40618587 330.60001
1.3800436 1.3355621 0.42529756 623
1.1759042 1.4261711 0.40703821 493
1.2872369 1.4040431 0.37469587 521.75
1.4183671 1.4070783 0.34705648 423
0.76683259 1.5680213 0.40463179 311
1.0212168 1.616528 0.37194782 411.88889
1.1542591 1.5754528 0.38144532 419.88889
1.2573893 1.5565953 0.37056372 417.57144
0.79213381 1.68153 0.32308882 269
0.94391799 1.6730942 0.41285074 339.33334
0.678563 1.1157506 0.45539874 188
0.79123682 1.156482 0.51084989 259
0.83540714 1.2210355 0.47582746 334.33334
1.2872502 1.3236083 0.56405926 630
1.3798491 1.3020176 0.53665233 620.60004
1.5363541 1.3206313 0.584629 399
0.74768901 1.4572362 0.51960289 356
1.1613684 1.387834 0.52237338 584
1.2741296 1.4076402 0.52067792 515
1.3923841 1.3831246 0.51440561 418
1.5815715 1.3741763 0.54574311 426
0.78167307 1.5710866 0.50562251 307.33334
0.99471211 1.6023165 0.52097785 471.80002
1.1054775 1.5580491 0.53609145 568
1.2296119 1.5479 0.52470422 483.88889
0.66690373 1.1594641 0.70786792 494.5
0.81828249 1.1719793 0.69850004 550.66669
0.67794752 1.239002 0.68792635 327.75
0.80485171 1.2582356 0.68897831 399.25
1.1305013 1.3290306 0.69390339 826.60004
1.2796422 1.3064454 0.68938422 719.22223
1.4145423 1.2654847 0.66389155 669.28577
1.5421962 1.3077741 0.71948421 291
0.78135574 1.4031634 0.73102641 470.5
0.96750814 1.3666532 0.724437 498
1.118845 1.4028728 0.68780112 662.14288
1.2609755 1.3994619 0.66447973 598.57147
1.4488416 1.3589253 0.68492973 430
0.79608345 1.5361894 0.68301606 324
1.0025319 1.5842727 0.68019044 532.40002
1.1215402 1.5466623 0.67058057 586
1.2237835 1.5392386 0.66856551 665.28577
0.71320575 1.1861178 0.789617 533.79999
0.78183556 1.17204 0.87473285 461.33334
0.95888644 1.132206 0.86417925 456.60001
0.74229586 1.2196292 0.75178772 377
0.8289957 1.2560484 0.82730931 308
0.94463682 1.2953267 0.80022281 463
1.1303258 1.3155473 0.83926004 783
1.2668878 1.305727 0.82400858 719.66669
1.3796391 1.2137898 0.81809825 661.66669
0.77116334 1.404213 0.86845779 450.5
0.99975193 1.4560958 0.84288079 555.11115
1.1269274 1.4107324 0.81217325 687.55554
1.2756824 1.4445151 0.76853025 667.66669
0.98836124 1.5769404 0.81886911 321.66669
1.0490377 1.6661786 0.77903622 309
0.83391207 1.1493624 0.98454875 612.60004
0.98077804 1.1274756 0.98213416 568.2381
1.2616916 1.1839328 1.0487047 781
0.82596815 1.2658942 0.95907205 375.66669
0.98241156 1.3219489 1.0137365 811.79999
1.1239609 1.3008649 0.98025268 746.91998
1.2677211 1.2732319 0.97567272 679.95001
1.4073788 1.2300973 0.96865934 590.20001
0.97854954 1.4318937 0.95642972 565.66669
1.0797493 1.402078 0.96255827 634.75
1.2574084 1.4299253 0.93990892 349.66669
0.84511739 1.5681874 0.9962225 325.80002
0.99165964 1.5242002 0.98359364 380.25
1.1205601 1.5176575 0.97673345 386
0.86805248 1.1536386 1.1048381 515.72729
0.98108667 1.1328808 1.1022632 515.66669
1.2559386 1.1804217 1.1382062 785
0.96222448 1.2659905 1.0990568 715.83337
1.1079011 1.2581112 1.1276362 687.82611
1.2216763 1.2444654 1.1125709 694.60004
0.86978883 1.4254372 1.1440953 525.40002
0.98570752 1.4759796 1.188651 657
1.0996073 1.4548995 1.1215923 539.79999
0.8663395 1.5533587 1.1410984 453.80002
0.98100376 1.5346626 1.1103562 453.33334
1.2459937 1.1498038 1.200143 839
0.84875441 1.348007 1.2519442 639
1.1435522 1.2088404 1.2097397 640.33337
0.85817003 1.429426 1.2569654 591.83337
0.98144764 1.4442034 1.2707051 582.69232
1.0639466 1.4439381 1.2509518 602.20001
0.85953963 1.5125962 1.281859 481.20001
0.9865889 1.5832517 1.2107522 291
0.86160982 1.463004 1.3554621 513
