# .PCD v0.7 - Point Cloud Data file format
VERSION 0.7
FIELDS x y z intensity
SIZE 4 4 4 4
TYPE F F F F
COUNT 1 1 1 1
WIDTH 1
HEIGHT 83
VIEWPOINT 0 0 0 1 0 0 0
POINTS 83
DATA ascii
0.41311961 2.6939538 0.12232238 309
0.81843561 2.637464 0.11495826 395
0.55709106 2.7629862 0.11976934 282
0.64765048 2.7811475 0.12740098 291
0.81447613 2.7460141 0.13569161 265
0.56351 2.861979 0.12684679 269
0.68794429 2.9574904 0.11224434 335
0.7433219 3.0516446 0.076554596 476
0.75575161 3.1074429 0.1288859 247
0.41568089 2.6566846 0.18167655 441
0.82484168 2.6750426 0.18134366 309.66669
0.42797422 2.7189097 0.23941836 382.66669
0.62386048 2.8155584 0.18766057 305.5
0.83322382 2.7156122 0.22299701 285
0.57852107 2.8839862 0.26996517 417
0.64378917 2.8608077 0.25755534 304
0.73977876 3.1173739 0.1896151 307
0.76884723 3.1244159 0.26154158 314
0.76858068 3.1678326 0.16091669 281
0.4284839 2.6912286 0.36577451 382
0.6827209 2.6851416 0.41323918 362
0.43216395 2.7354205 0.37803546 368.75
0.54098004 2.7575483 0.41221166 317.20001
0.60086924 2.8062298 0.43330172 307
0.8080591 2.7365623 0.42783684 281
0.59222388 2.8889074 0.36774835 291
0.66693628 2.8787668 0.36062625 299.80002
0.78524286 3.129137 0.35209751 299
0.80525339 3.1538529 0.40777528 289
0.70200801 2.6832681 0.47666153 337
0.75343275 2.6902831 0.50986022 329
0.44628012 2.7844963 0.4620201 275
0.50688928 2.7679927 0.51164782 299.25
0.64394426 2.7441173 0.52541888 314.66669
0.81832778 2.7392426 0.5321312 298.5
0.71679151 3.0596619 0.54511952 323
0.79976916 3.0292752 0.59386539 313
0.91620457 3.2063828 0.59064555 322
0.56725746 2.8271503 0.66463596 278.75
0.62932324 2.7921968 0.66486126 708
0.80533391 2.7761192 0.66447186 228.5
0.56353486 2.916795 0.69158387 285
0.67666435 2.9200721 0.74016511 283
0.73930693 3.0680513 0.63172376 309.66669
0.78597087 3.0323181 0.68925071 305.66669
0.88470441 3.1812935 0.70373714 335
0.54905045 2.8489766 0.82184315 279
0.68391311 2.7646217 0.78353727 495
0.79844379 2.8192515 0.79079545 315.75
0.51115596 2.8784559 0.78742504 290.33334
0.70106018 2.9539096 0.83699954 306.33334
0.77345902 2.9395661 0.87082005 290
0.59577221 3.0358553 0.84499872 287
0.66752708 3.0104609 0.82785964 295
0.92162776 3.1371264 0.88435066 231
0.67405391 2.826412 1.0114659 355
0.81985396 2.8428924 0.96680176 302.33334
0.50365424 2.9436643 0.96433085 284.80002
0.64250892 2.9470286 0.9950099 321.66669
0.77092206 2.9446166 0.97809309 313.39999
0.58655572 3.0513272 0.92496777 305
0.6430788 3.040689 0.95149994 311
0.69820213 2.8419597 1.1623232 373
0.80710554 2.8287454 1.1219829 338
0.53003752 2.9134603 1.1608976 349
0.66046822 2.8908389 1.1389267 357.00003
0.8095988 2.8716061 1.0955691 321.5
0.52208215 3.0401249 1.1228901 273.39999
0.72771728 2.8343973 1.283025 351
0.8282634 2.8038652 1.2571682 353.22223
0.53844488 2.9113936 1.2697982 366.5
0.66734201 2.8678405 1.283829 353.80002
0.59890902 2.8437691 1.4877946 285
0.65007305 2.8088627 1.4391904 314.33334
0.75596458 2.8194814 1.3754134 369
0.90018797 2.8129892 1.3520164 272
0.56839919 2.9062982 1.4192305 293.5
0.69305688 2.9072096 1.4383175 295
0.7500124 2.8832119 1.4785029 247
0.58184385 2.8068786 1.5882001 288.5
0.6643635 2.8110962 1.5685946 285.60001
0.72359502 2.8502018 1.5460635 267
0.76055372 2.8786163 1.5524858 239
