# .PCD v0.7 - Point Cloud Data file format
VERSION 0.7
FIELDS x y z intensity
SIZE 4 4 4 4
TYPE F F F F
COUNT 1 1 1 1
WIDTH 1
HEIGHT 117
VIEWPOINT 0 0 0 1 0 0 0
POINTS 117
DATA ascii
3.9051228 -0.86175013 0.097866297 338
3.7294216 -0.70809883 0.14825879 249.5
3.7542925 -0.73773396 0.068705559 277
3.9916949 -0.34353027 0.080904245 325
4.0641527 -0.40126002 0.11793384 330
4.0499067 -0.29440528 0.034338117 351
4.0723791 -0.27272117 0.088095799 307
3.8207412 -0.095958412 0.10756277 319.33334
3.97542 -0.091314696 0.040355116 259
3.9322994 -0.91703594 0.22432476 365
3.6767507 -0.76117778 0.19352983 347
3.8956289 -0.86039579 0.22437024 353
3.7204697 -0.73246765 0.22965482 303
4.192915 -0.45645991 0.19895881 285
3.9924114 -0.35434064 0.26557824 321.66669
4.0768995 -0.3627733 0.24794678 311.5
3.9054856 -0.19395921 0.25242352 305
3.8640571 -0.11868456 0.21178842 315
3.9365306 -0.095788531 0.26486093 288.33334
3.9521363 -0.95542175 0.36675572 328.60001
3.7400711 -0.76385027 0.31217623 347
3.835309 -0.76750785 0.39552686 346
3.9336905 -0.8700043 0.35474822 334
3.7533417 -0.74021792 0.31093973 327
4.0326409 -0.7231136 0.34737509 284
4.02356 -0.36526591 0.38278061 308
4.1099529 -0.37284148 0.38265166 302
3.9474909 -0.20114955 0.38061529 297
4.1422668 -0.24466595 0.3804884 293
4.0509348 -0.12366084 0.37966198 295
3.8896875 -0.97143787 0.5551213 342.33334
3.9285569 -0.96840912 0.49460483 339
3.8595886 -0.76833963 0.54319257 369
3.9590166 -0.86491841 0.52667826 319.80002
4.1048856 -0.72505194 0.48575419 289
4.0224071 -0.37987256 0.51912403 318
4.1284704 -0.31724164 0.52126259 285
4.0171843 -0.21935067 0.51594585 317
4.1172905 -0.1248481 0.51840663 300.5
3.855835 -1.0945415 0.68435144 339.5
3.8390779 -0.94752431 0.67245162 338
3.849566 -0.80500257 0.66408628 342
3.9536779 -0.83085561 0.672185 321
4.0967178 -0.70766157 0.67469347 293
3.9698849 -0.36121508 0.69202048 305.85715
3.976397 -0.23144031 0.70535433 312.60001
4.0724258 -0.12232086 0.70263165 276
3.8408294 -1.1244463 0.8236655 303
3.9223645 -1.0672569 0.77964061 243
3.8221109 -0.9829855 0.81000412 333.33334
3.7031121 -0.84988457 0.83156228 3509
3.8285768 -0.80637258 0.77019083 373
3.9030771 -0.77513283 0.84822273 297
3.7854812 -0.72719961 0.83188331 3131
4.0269375 -0.69297028 0.82564664 302.33334
4.1032543 -0.65100491 0.81617141 301
4.0209484 -0.49600947 0.79968989 343.5
4.069149 -0.50660706 0.80531824 275
3.9347706 -0.36651549 0.83169144 310.33334
3.9928641 -0.24113815 0.83522785 294.33334
4.0233736 -0.12620218 0.83697093 301
4.1364269 -0.064570218 0.8179242 267
3.7859206 -1.0873889 0.99568152 354
3.7448416 -0.91708589 1.0163636 363
3.8133609 -0.98225856 0.98876536 322
3.6729488 -0.89860374 0.9181391 2613
3.8165245 -0.81499356 0.98343241 509
3.8318458 -0.74046999 0.97164643 1691
3.953054 -0.69474864 0.98583198 338.75
4.086297 -0.64676023 0.95578253 275
3.9984994 -0.53002417 1.0104034 340.80002
4.0726442 -0.54024458 0.94824135 287
3.9672933 -0.36923742 0.97119874 303.33334
3.9683781 -0.23567224 0.9672513 304
3.9996493 -0.13064122 0.96999121 289
4.0939293 -0.07741642 0.98427695 275.5
3.812171 -1.1057949 1.1355888 348.5
3.7217624 -1.0239416 1.1955552 2256
3.786345 -0.95001978 1.1308022 366.60001
3.8214297 -0.81430966 1.1558613 382.42859
3.8967469 -0.7191819 1.199759 407
3.9092917 -0.70498586 1.1136777 353
3.96912 -0.50892401 1.1120255 327.33334
3.9705021 -0.35895368 1.1402296 301
3.9959161 -0.2324028 1.1501691 297.33334
3.9836724 -0.13695475 1.1457062 303
4.0627623 -0.076479949 1.1162406 294
3.8139324 -0.97763544 1.2722462 415.5
3.8151336 -0.82782722 1.2769248 375.66669
3.9179943 -0.81155074 1.2984271 307
3.94294 -0.70427787 1.2512035 346.5
3.9839122 -0.49616906 1.2368068 301.20001
4.0684824 -0.56137151 1.3124933 287
3.978888 -0.38180667 1.2598941 296.5
4.0049896 -0.229165 1.2819362 301.66669
4.0281248 -0.14372905 1.28543 295
4.0965171 -0.076623902 1.2568482 285.5
3.8600287 -0.94560993 1.4240732 354.5
3.9704762 -0.96728748 1.4684296 276.33334
3.8683641 -0.83792186 1.3999103 352.66669
3.9028084 -0.86299407 1.3842034 307
3.9942966 -0.47925013 1.3743396 359.5
4.0072708 -0.35987049 1.403945 316.39999
4.056901 -0.43475842 1.4706521 275
4.0168171 -0.24901748 1.4105222 354.5
4.0669727 -0.23186237 1.4096178 322
4.0160151 -0.14665066 1.3665972 301
3.9421442 -0.87887621 1.5819314 264
4.2568407 -0.46736261 1.6119207 279
3.9768167 -0.33751065 1.5579431 331.5
4.0733609 -0.43888482 1.5552605 392
4.0350704 -0.2501024 1.5597461 396
4.0781579 -0.25277105 1.6237594 372
4.1677008 -0.45210877 1.6624588 275
4.009233 -0.34270871 1.675943 303
4.0948639 -0.34180582 1.7049391 295
4.0755606 -0.25489792 1.6944919 265
