# .PCD v0.7 - Point Cloud Data file format
VERSION 0.7
FIELDS x y z intensity
SIZE 4 4 4 4
TYPE F F F F
COUNT 1 1 1 1
WIDTH 1
HEIGHT 58
VIEWPOINT 0 0 0 1 0 0 0
POINTS 58
DATA ascii
-0.095082432 1.7817491 0.29985693 481
0.1028331 1.9881228 0.27218392 396.75
0.17134456 2.0132701 0.24910346 319
-0.17809531 1.7949785 0.35689124 425
-0.11002956 1.7903415 0.37817445 478.8667
-0.2128021 1.8547889 0.38202509 345.54547
-0.10446403 1.8083521 0.38764566 491
0.074799828 2.0082769 0.37445873 381.41379
0.16395061 2.0143082 0.35514221 363
-0.088379286 1.785984 0.53997731 476.66669
-0.19512391 1.8487386 0.51255035 343.66666
-0.063078254 1.8236111 0.5147807 465.58823
0.03401053 1.9485639 0.56366003 528.33337
-0.017981643 1.9934815 0.49333087 387
0.077852778 1.9932516 0.51924479 457
-0.15810253 1.7521003 0.68257332 359.66669
-0.082104824 1.7546517 0.67117542 433.10001
0.017078955 1.7831236 0.68310481 575.5
-0.18244164 1.8667557 0.65054315 306.5
-0.0127424 1.8111572 0.69246876 432
0.040392034 1.9184177 0.68027484 480.66669
0.073318705 1.9897628 0.66329867 455.25
0.11745855 2.1177192 0.63241696 301
-0.065654665 1.7318925 0.81012434 1155.5
0.02751958 1.7642499 0.83943456 1603.2858
-0.21385667 1.8698823 0.82847029 729.75
0.077961087 1.8669007 0.83401006 817.70001
0.083069704 1.974389 0.80560315 380.80002
-0.15970799 1.7494835 0.93989992 321.66669
-0.063543119 1.7668806 0.96489978 396.81821
0.034888458 1.7900585 0.96610659 1175.6667
-0.20897293 1.8959683 0.91967291 347.5
-0.080175497 1.8143121 0.99370635 386.5
0.052500919 1.8616766 0.99904788 393.75
0.10627683 1.9951115 0.98904908 369.33334
-0.064738877 1.7659122 1.124305 593.36365
-0.028232269 1.8236638 1.0982361 406
0.031118335 1.8678461 1.1302438 412.75
0.08382763 1.9819236 1.1369739 350.5
0.11572666 2.1124327 1.1457123 300
-0.071100533 1.7686353 1.2306356 935
0.0034810007 1.7701359 1.2338172 2353
-0.037695467 1.8453386 1.3044496 393
0.029571306 1.8787227 1.2336164 740
0.042161867 2.0427074 1.2830381 351.66669
0.16652578 2.0783803 1.2940624 439
0.12364672 2.1128135 1.2710032 433
0.20719115 2.1400232 1.2905319 393.33334
-0.045041457 1.9022192 1.398026 307
0.040751986 1.8920822 1.4513757 312
-0.037995171 1.9833136 1.4480698 279
0.053060066 2.0162308 1.4241968 279.39999
0.18529521 2.0917697 1.3805456 349
0.089025393 2.1323116 1.4326854 299.57144
0.15326408 2.1154349 1.3998104 374
-0.042629771 1.9146752 1.5266535 321.83334
0.061923444 1.8658164 1.5663453 316.6875
0.084338605 1.9831014 1.5639603 259
