# .PCD v0.7 - Point Cloud Data file format
VERSION 0.7
FIELDS x y z intensity
SIZE 4 4 4 4
TYPE F F F F
COUNT 1 1 1 1
WIDTH 1
HEIGHT 98
VIEWPOINT 0 0 0 1 0 0 0
POINTS 98
DATA ascii
0.4082506 2.649416 0.12725025 233
0.43525487 2.8157895 0.13653529 301
0.2723853 2.5291088 0.23557481 363
0.28849179 2.5996723 0.18257238 269
0.13239692 2.7400882 0.22156489 287.66669
0.22152588 2.8417339 0.26578739 281
0.41086239 2.7987735 0.23678172 268.5
0.45136487 2.840131 0.17534257 297
0.22633362 2.8872929 0.24723642 294.33334
0.42309713 2.8791137 0.24156022 269
0.46360588 2.8942389 0.19882859 265
0.28160894 2.5008771 0.35529837 627
0.4865995 2.5097301 0.398453 488.66669
0.074440867 2.6753745 0.35476756 419.5
0.29214177 2.6094842 0.43693122 275
0.42873645 2.6441553 0.41114354 263
0.086740039 2.7822213 0.39578834 361.71429
0.22349401 2.8235252 0.35154372 288.5
0.38963184 2.7914152 0.38345641 291.80002
0.28370416 2.8970437 0.39575642 304.33334
0.29749078 2.5422039 0.48153761 118
0.22750707 2.6791797 0.47578132 253
0.39619589 2.6502085 0.49254024 269.33334
0.457542 2.6538334 0.56190884 275
0.046939634 2.7409148 0.530496 289.83334
0.19913554 2.7743585 0.51071507 256.66669
0.36219329 2.7334914 0.50287503 262
0.37779784 2.855768 0.59296387 285
0.23223603 3.1041756 0.57646018 330
0.47325754 3.0047381 0.58636498 309
0.021887302 2.7921329 0.60013008 315
0.22943592 2.7724423 0.67567366 322.5
0.035139605 2.9044909 0.70699143 301
0.23751049 2.9032786 0.70076847 298.20001
0.37787509 2.9418752 0.69661677 303.5
0.49267578 2.962553 0.68806404 319
0.25012168 3.0612578 0.70021611 309
0.34028122 3.0040014 0.6118241 305
0.4989208 3.0173612 0.64786839 309
0.1092689 3.1846609 0.70587194 317
0.23981443 3.2045579 0.64714193 305
0.32219627 3.2434089 0.63409734 267
0.39766261 2.6571257 0.85083532 300
0.49552736 2.6378171 0.81782329 304.33334
0.079604477 2.789649 0.81519437 285.66669
0.19942254 2.8230844 0.81655586 293
0.48331285 2.7730901 0.75399709 453
0.090481453 2.9620166 0.83597326 327.66669
0.22949773 2.9232819 0.8604399 290.5
0.37111554 2.9425035 0.82836199 313.39999
0.52653158 2.9563241 0.77262652 313
0.43767357 2.6695793 1.0154929 402
0.50407636 2.6760278 0.93512845 307
0.079727307 2.7242184 0.9614284 403
0.29961127 2.8427486 1.0112915 327
0.43105555 2.7497146 0.98903626 343.66669
0.54879999 2.7651887 1.018446 334
-0.097793669 2.863848 1.0279274 426
0.052756071 2.9606774 0.93914044 313
0.23414001 2.9006894 0.98456019 301.28574
0.37785071 2.8950534 0.95808876 323
0.56312603 2.8967686 0.93585032 327
0.11278459 3.0785894 1.0233877 299
0.21532911 3.0252836 0.99157709 255
0.26645613 2.6959536 1.1999669 339
0.58113134 2.6755838 1.0612853 303
0.61019135 2.6438365 1.1896794 381
0.076642796 2.8046012 1.1235943 336.5
0.21810882 2.8049793 1.1299402 328.66669
0.37599584 2.7770252 1.1149987 351.33334
0.51162952 2.7574565 1.1451986 330.33334
0.6015873 2.7078633 1.138844 305
-0.074664965 2.8865647 1.1400852 291
0.071841702 2.8906951 1.0700059 361.5
0.29362029 2.92047 1.1057832 271
0.31140852 2.9218316 1.1798828 279
0.63309461 2.6913378 1.2740811 355
-0.029076695 2.7931838 1.2582934 341
0.080323949 2.8033555 1.2733672 315.5
0.24531336 2.7531471 1.2664989 363.80002
0.35833019 2.7458749 1.2796866 348.25
0.50435656 2.7793546 1.2781105 331
0.11947934 2.9036112 1.2946606 271
0.1441931 2.6912911 1.3731322 305
0.26884466 2.6727397 1.4358675 302.33334
0.34680122 2.6494794 1.4579899 297
-0.0045205057 2.8111718 1.3738862 315
0.22270665 2.730417 1.3939438 299
0.36512822 2.7708304 1.389982 301
0.48294473 2.7720261 1.4425343 285
0.660761 2.7682946 1.3714378 281
0.13893571 2.8738859 1.3599989 305
0.5020718 2.8706486 1.4386866 265
0.079529658 2.6278453 1.5848218 398
0.37857819 2.5927353 1.5211945 311
0.50816131 2.6842453 1.5119035 348
0.045528546 2.7394192 1.5278165 266
0.2234029 2.7045789 1.5452416 261
