# .PCD v0.7 - Point Cloud Data file format
VERSION 0.7
FIELDS x y z intensity
SIZE 4 4 4 4
TYPE F F F F
COUNT 1 1 1 1
WIDTH 1
HEIGHT 88
VIEWPOINT 0 0 0 1 0 0 0
POINTS 88
DATA ascii
0.66140044 2.3996449 0.12274235 418
0.55487257 2.4730551 0.11299223 395
0.79361373 2.4668562 0.11805192 299
0.42108622 2.6757245 0.13640505 328.5
0.74871486 2.6367502 0.10468358 276
0.79832286 2.6436496 0.13511521 375.66669
0.53992385 2.7461517 0.12731427 268.66669
0.64248794 2.7728889 0.1291526 287
0.66030657 2.877775 0.085908651 301
0.72499263 3.0416768 0.10943329 318
0.76006114 3.1350119 0.1265693 257
0.41087502 2.682641 0.19526654 286.5
0.72984135 2.6818509 0.15636942 386
0.81780511 2.6340384 0.22086182 437.42859
0.42983699 2.7474647 0.23774168 316.66669
0.59117848 2.7839832 0.16501182 307
0.63046241 2.8187776 0.23154135 304.42859
0.84752417 2.706048 0.2844936 245
0.58091295 2.9338796 0.29006124 255
0.72704363 3.0638516 0.19419472 334
0.76700914 3.1252756 0.25182828 278.5
0.7659443 3.151082 0.16212803 279
0.42047018 2.6947072 0.36733967 198
0.53511369 2.6609266 0.41589355 235.5
0.6417836 2.6710784 0.42043555 401
0.79170763 2.6668909 0.44512486 321
0.43571779 2.7925534 0.37760836 268.5
0.51585114 2.7168193 0.44611573 319
0.6627084 2.8025901 0.40381202 323.66669
0.81666553 2.7231514 0.44372886 259
0.58491921 2.8662469 0.36060458 318.25
0.65910995 2.8606939 0.35964775 302
0.78097951 3.1202378 0.35389909 296
0.55491465 2.6949942 0.49081057 338
0.68453729 2.6712291 0.48910922 363.28574
0.80529499 2.6981704 0.50110716 315
0.44796062 2.7763858 0.46138877 274
0.50893748 2.7531228 0.53154612 308
0.6592834 2.7351263 0.53209126 316.33334
0.81291187 2.7120833 0.54044509 305
0.68304759 2.858639 0.53573519 463
0.80251944 3.0450013 0.59492379 309
0.91284287 3.1927981 0.5899052 314
0.81397736 2.6605809 0.6158821 60
0.56894475 2.7776752 0.67439175 307.66669
0.61936665 2.7866354 0.6793716 316.60001
0.56030458 2.9360971 0.66087651 366
0.79725087 2.935698 0.685866 332
0.73179424 3.0388048 0.6591047 323.5
0.81720805 3.0699391 0.70070249 307.5
0.51699769 2.8339005 0.79077083 287
0.7139411 2.7521029 0.77627277 566
0.79200703 2.7993176 0.80600345 297
0.51748157 2.8755085 0.7972734 289
0.6950264 2.9200916 0.83240688 313.66669
0.79485583 2.9356265 0.86646914 321
0.59225106 3.0083635 0.84098178 283
0.68355978 3.017386 0.78937638 286
0.82444215 3.0658784 0.84769827 286
0.91470826 3.1273124 0.88358873 247
0.66940904 2.8298161 1.0130875 371
0.81352204 2.8190534 0.96234858 307.66669
0.4490906 2.9109783 0.99710166 168
0.51032841 2.9096885 0.94837046 270
0.64535177 2.9524486 0.99210054 321
0.76684457 2.9382443 0.97729075 315
0.58176035 3.0496838 0.92551684 301
0.62685311 3.0390518 0.94138503 310.33334
0.69240892 2.8376768 1.1620121 379
0.81818855 2.8147132 1.1352072 338.33334
0.52818334 2.9359448 1.1524911 323
0.65612113 2.8740115 1.1348939 359.00003
0.79093623 2.8683496 1.0784056 327
0.51195514 3.0684223 1.0997541 272
0.68916249 2.8307862 1.2698663 370.14288
0.82853246 2.7972343 1.271854 358.88889
0.53102887 2.8957927 1.27458 371.00003
0.65406752 2.8744125 1.3348519 317
0.5925504 2.837394 1.4478168 302
0.65410942 2.8007116 1.4353144 321.66669
0.75560486 2.8166733 1.3744127 367
0.55824649 2.9238257 1.3691895 314
0.69464344 2.8972938 1.446057 287
0.58089572 2.8032603 1.5866818 294.5
0.66058016 2.8057764 1.5669206 279.60001
0.56217808 2.8729284 1.5063021 277
0.72089255 2.8606286 1.5509909 281
0.7581858 2.8955734 1.5601499 247
