# .PCD v0.7 - Point Cloud Data file format
VERSION 0.7
FIELDS x y z intensity
SIZE 4 4 4 4
TYPE F F F F
COUNT 1 1 1 1
WIDTH 1
HEIGHT 82
VIEWPOINT 0 0 0 1 0 0 0
POINTS 82
DATA ascii
0.55658054 -2.1055138 0.14504206 295
0.74252939 -2.1670704 0.12082176 243.66667
0.95038378 -2.1563599 0.092800967 316.5
1.1092693 -2.1105607 0.10595524 416
0.60198057 -2.0755856 0.138163 418
1.0081367 -2.0690205 0.10569312 354
1.0595677 -2.0647333 0.089579806 356.33334
0.56543392 -2.1294465 0.17103973 266
0.65611255 -2.159512 0.22062296 302.58334
0.78863084 -2.1408563 0.21388975 386.44446
0.93334216 -2.165962 0.1774784 397.33334
0.62751961 -2.0920053 0.18817034 325.5
0.82658333 -2.0268497 0.22167479 280
0.9807694 -1.9984123 0.18927734 343.66666
1.0827448 -1.9838499 0.20321214 249
0.84118503 -1.8954933 0.24968481 306.16669
0.98317158 -1.9258736 0.23767085 285.89999
1.0982978 -1.9048584 0.22896932 275.83334
0.78036106 -1.7120332 0.29515684 355
0.96269453 -1.7778769 0.27642649 257
0.68768483 -2.2085762 0.3142958 424
0.81871963 -2.1997428 0.32785371 390
0.84297353 -1.9828246 0.35784352 306.5
1.081027 -1.9612443 0.44371057 295
0.87801856 -1.8940315 0.35674834 298.60001
1.0071292 -1.888482 0.36553985 302.75
1.0794555 -1.9013753 0.31140065 275
0.74473864 -1.7444204 0.3021329 367
0.82704872 -1.7399307 0.37357864 378.76471
0.93687546 -1.7259268 0.39733797 366.11111
0.98036397 -1.6473659 0.39212233 427
0.89637136 -2.2652116 0.55495834 263
0.73026824 -2.1806526 0.49929219 292
0.83211941 -2.2028699 0.54139811 280.66669
0.66122299 -2.0861835 0.57322693 326
0.83321702 -2.0226619 0.56957746 303
0.91683835 -2.0473466 0.55902159 277
1.1180359 -2.0219793 0.49227452 269
0.86641383 -1.884738 0.49336547 339.5
0.992459 -1.9070348 0.54542172 374
0.85300493 -1.7598581 0.46977496 382.20001
0.96449625 -1.7327013 0.49114534 384.60001
0.76316714 -2.2670639 0.68686402 430
0.74101239 -2.1305637 0.72120118 291
0.80316257 -2.1501229 0.63442099 259
0.96199727 -2.1146111 0.63125396 259
0.66357833 -1.9766518 0.65521759 428.20001
0.8101263 -2.0289662 0.6879698 371.00003
0.95661616 -2.0491133 0.65943903 278.14288
1.0730171 -2.0557885 0.62422067 320.66669
0.65340292 -1.9269884 0.71279782 527
0.84863734 -1.9268762 0.6915316 343.5
0.97161126 -1.9078983 0.69725019 608.71429
0.76573324 -2.1695483 0.83744693 249
0.71547461 -2.0202334 0.8220613 352.75
0.82342035 -1.9912723 0.83213878 481.76926
0.94641 -2.0096076 0.84269065 423.5
1.0859225 -2.0233674 0.84602374 437
0.65280163 -1.9357092 0.79831088 501
0.8553232 -1.8890761 0.80910408 545
0.94356406 -1.9078906 0.81426048 457
0.84148341 -2.0066943 0.97436816 488.42859
0.98117959 -2.0075812 0.98723865 456.5
0.8702808 -1.9275407 0.98957616 401.5
0.93078065 -1.949585 1.030955 499
0.96524489 -2.1811848 1.1714272 329
0.8761462 -2.0051222 1.1484715 328.33334
0.95604765 -2.0134556 1.1180195 426.20001
1.0552397 -2.0040586 1.123185 305.5
0.82842159 -1.9457076 1.0934463 441
0.94471276 -1.9377754 1.1058452 386
0.8733086 -2.1659846 1.3046293 332.25
0.99005598 -2.1461139 1.2855144 370.125
1.1203712 -2.1731462 1.3126913 347
0.89896512 -2.0987124 1.2590561 479
0.96077967 -2.0517406 1.3047941 425
1.1048412 -2.0922141 1.3234327 374
0.89380193 -2.149158 1.3933489 312.5
1.0129195 -2.1406703 1.4062704 398
1.1237011 -2.1675467 1.41403 378
0.96095699 -2.0773313 1.4035505 427.80002
1.0590205 -2.0707426 1.4110898 438.33334
