# .PCD v0.7 - Point Cloud Data file format
VERSION 0.7
FIELDS x y z intensity
SIZE 4 4 4 4
TYPE F F F F
COUNT 1 1 1 1
WIDTH 1
HEIGHT 65
VIEWPOINT 0 0 0 1 0 0 0
POINTS 65
DATA ascii
1.2164247 1.9422505 0.10363461 413
1.1762453 1.9995922 0.082307413 347
1.2332265 1.9709218 0.10185442 340.42859
1.4249377 2.0227773 0.064559214 345.40002
1.414499 2.1479452 0.094508 289
1.1871585 1.9298016 0.25373811 329
1.2295725 1.9476156 0.26610708 359.5
1.1769345 2.0236635 0.21749108 317.70001
1.2400775 1.9867175 0.22588646 317.09091
1.4080008 2.0228357 0.23183414 325.61539
1.4233255 2.1539342 0.1717893 303
1.1907086 1.9309871 0.37886643 352.33334
1.241348 1.9251336 0.37896246 381.80002
1.4126089 1.9269689 0.42409915 377
1.1846938 2.0064468 0.37331006 329.5
1.2626219 1.9974848 0.3629232 305.39999
1.3951768 1.9888455 0.36507574 332
1.4006042 2.131639 0.41045943 255
1.189355 1.9439578 0.47317743 351
1.2388353 1.9184386 0.517802 382.09091
1.3916487 1.9150938 0.5458374 439.00003
1.1768893 1.966828 0.54077309 378.5
1.3477802 1.9611087 0.55726725 367
1.40376 1.9898329 0.49274367 333
1.5144806 1.9930042 0.59995961 281
1.1499035 1.9148583 0.69502658 360.77777
1.2634833 1.8821452 0.66625738 453.40002
1.3906512 1.8900703 0.67628354 454.89999
1.5113182 1.9345869 0.7044875 311
1.1539621 1.9644716 0.63345534 340
1.5269486 1.9903308 0.65612888 275
1.4346244 1.6957302 0.76474011 266
1.14564 1.9152168 0.80800283 382.28574
1.2633859 1.8674738 0.82048893 593.21051
1.4172693 1.8659962 0.82202399 439.25
1.5654684 1.9838787 0.84348291 320.39999
1.432409 1.7416468 0.98929608 313
1.1523894 1.9398038 0.98303896 423.5
1.2710236 1.8667578 0.97719979 513.82355
1.3988684 1.865687 0.96833086 415.00003
1.5408863 1.8743069 0.97731286 321.20001
1.1615965 1.9973497 0.91666913 300
1.5367334 1.9862899 0.97351992 306.33334
1.145965 1.9179147 1.1114123 531.79999
1.2617102 1.8824234 1.1235045 551.875
1.3895624 1.8704438 1.1267414 461.00003
1.5509098 1.9130344 1.077274 312
1.118665 1.9722323 1.1339213 400
1.5361346 1.9927039 1.1485858 400.75
1.1623977 1.9092022 1.2220383 544.60004
1.2772356 1.9007465 1.2802391 435.30771
1.3893094 1.8868444 1.2707653 356.125
1.5069364 1.9482692 1.2303399 335
1.1579685 1.9698303 1.2908671 307
1.4756999 1.959499 1.3141183 317
1.3291107 1.7825726 1.4346021 356.66669
1.3817713 1.7909492 1.4524201 324.60001
1.2903008 1.8580947 1.4298518 329.73685
1.4222376 1.8592746 1.4158489 309
1.301308 2.0017743 1.422577 272.20001
1.324453 1.7699194 1.5376527 352.5
1.3912365 1.7717363 1.5422533 323.5
1.2729757 1.8549721 1.5411916 289.33334
1.4051946 1.8375214 1.544311 310
1.2552613 1.9517479 1.543175 268
