# .PCD v0.7 - Point Cloud Data file format
VERSION 0.7
FIELDS x y z intensity
SIZE 4 4 4 4
TYPE F F F F
COUNT 1 1 1 1
WIDTH 1
HEIGHT 70
VIEWPOINT 0 0 0 1 0 0 0
POINTS 70
DATA ascii
-0.22721976 2.6336932 0.26312754 303.25
-0.37025052 2.808959 0.29886174 285
-0.23708782 2.8187954 0.28411949 349
-0.66103637 2.9606438 0.29627335 428
-0.51547235 2.9026403 0.27642584 420
-0.3859944 2.9438503 0.28164458 464
-0.15988421 2.924315 0.25223574 333
-0.09152583 2.9454117 0.26342663 348.75
0.10998265 2.9615152 0.23276433 246.75
0.16931057 2.9540076 0.23600498 208.5
-0.43460569 3.0689573 0.24809812 271
0.050381944 3.0686235 0.28842199 282
-0.61254829 2.5907941 0.34279662 341
-0.55125058 2.5955312 0.42726064 258
-0.3601096 2.6693695 0.3700738 411
-0.22794305 2.6570415 0.36146161 291.10001
-0.1365495 2.6648242 0.43295747 386
-0.55559814 2.7632909 0.39817113 226
-0.41018027 2.7847724 0.40609869 265.5
-0.21079156 2.7816992 0.41492397 350.25
-0.69034827 2.939116 0.39110816 351.5
-0.52275103 2.9063809 0.38590235 406.25
-0.42273968 2.956542 0.38354588 313.66669
-0.22628674 2.9102511 0.38083154 350
-0.090638734 2.9413145 0.35515603 302.60001
0.11120441 2.9431038 0.3979634 342.66669
0.15013203 2.9193816 0.42043647 232
-0.64152706 3.0224807 0.37528986 266.66669
-0.54791737 3.0062473 0.32667282 339.5
-0.37998566 3.0560222 0.36950141 215.5
-0.18572696 3.0526056 0.33377185 266
-0.11461668 3.0476706 0.34016871 329.5
0.14045858 3.0201845 0.37473318 293
-0.50700372 2.6024723 0.50567055 298.33334
-0.37709135 2.587378 0.56827641 352.66669
-0.22837989 2.6513512 0.53635913 279.66666
-0.69588029 2.8469298 0.45415044 257
-0.38712585 2.74492 0.50265479 342.5
-0.28542963 2.7899282 0.50492418 261
-0.68733197 2.9276919 0.48971865 426
-0.39668438 2.8990242 0.52812147 394.75
-0.15207902 2.9314239 0.47928476 322
-0.046841621 2.9485078 0.52926826 299.16669
0.096782506 2.9447606 0.52534389 561.60004
0.16429573 2.9410887 0.52303678 461
-0.38134888 3.0355535 0.47505918 361.5
-0.14884418 3.0015161 0.58707738 263
0.012130827 3.0094509 0.55532765 289
-0.52554977 2.5951595 0.66199279 295.5
-0.37358993 2.5957742 0.66012686 300
-0.19840105 2.6363771 0.69231063 299.66666
-0.33076015 2.8110967 0.67314643 330.5
-0.29939488 2.7735825 0.72351229 392
-0.20170605 2.9225292 0.65286815 332
-0.092087612 2.9364371 0.65220886 296
0.065369621 2.911346 0.62823939 308
-0.51629162 2.5882034 0.84652245 277.5
-0.38072515 2.607374 0.83842742 339.66669
-0.26307911 2.623431 0.84002882 332.25
-0.13828705 2.6279917 0.82789159 324.5
-0.51981795 2.6294038 0.98227102 308
-0.36071748 2.6097956 0.99116921 304.625
-0.23388176 2.6098936 0.98398143 317.39999
-0.49472424 2.6093209 1.1112802 311.5
-0.35662362 2.6046588 1.127671 311.25
-0.22916473 2.6267297 1.1227276 280.14288
-0.51696193 2.6238194 1.2293377 303
-0.38212737 2.6129999 1.2633276 307.66669
-0.2339718 2.6328502 1.2650881 282.75
-0.20813733 2.6163356 1.4013157 306.83334
