# .PCD v0.7 - Point Cloud Data file format
VERSION 0.7
FIELDS x y z intensity
SIZE 4 4 4 4
TYPE F F F F
COUNT 1 1 1 1
WIDTH 1
HEIGHT 73
VIEWPOINT 0 0 0 1 0 0 0
POINTS 73
DATA ascii
0.85543275 -3.1511014 0.89779335 269
0.87450755 -3.0920687 0.88335818 370
0.92415297 -3.0834773 0.87370741 428
1.195372 -3.0093315 0.8972795 408
0.79748523 -3.192296 0.94265413 255.66667
0.8602882 -3.1314769 0.9937309 292.5
0.99805826 -3.069356 0.97862065 290.25
1.1337099 -3.0670004 0.95053226 273.80002
1.24476 -3.0941436 0.96299458 305.33334
0.74253154 -3.1992157 1.0908663 106
0.80516475 -3.1971529 1.1367543 286.33334
1.2821389 -3.1747489 1.1776037 328
0.81489921 -3.1246598 1.1020511 281
0.95556766 -3.1055541 1.1285861 281.57144
1.1135175 -3.0744848 1.1279805 285.5
1.2503941 -3.1068285 1.1052887 269
0.80634701 -3.1862388 1.2468085 296
0.85227108 -3.1247051 1.2776482 290.33334
0.95745313 -3.0935097 1.2524886 284.33334
1.1289728 -3.0736775 1.2936765 266
1.2553091 -3.1191525 1.2797427 275.66669
0.82719278 -3.2018764 1.4063686 293.66669
0.93999654 -3.1523004 1.473107 264
1.2799406 -3.1815288 1.3988101 323.5
0.88244379 -3.1205239 1.3847198 259
0.99639481 -3.0942636 1.3876123 271
1.1136496 -3.1046858 1.4330453 271
1.2052166 -3.1115911 1.4251183 257
0.74388456 -3.2678943 1.6350467 346
0.82303745 -3.240582 1.5586965 245.60001
0.95472008 -3.1745436 1.5869873 275
1.1389449 -3.160099 1.6224024 272
1.243603 -3.2029386 1.6004591 263.66669
1.0063272 -3.1243188 1.580965 263
1.1155691 -3.1143379 1.5425445 250.5
0.77975309 -3.3361111 1.7014928 276
0.84321856 -3.2362576 1.7150432 285
0.94601488 -3.1911798 1.7271435 274.20001
1.1397583 -3.1743484 1.7404832 267
1.2591157 -3.203862 1.7139373 203.5
1.0649598 -3.1358814 1.7313513 268.33334
0.77344221 -3.3348119 1.8792375 262
0.83441943 -3.2248466 1.8724474 296
0.97719753 -3.1871896 1.8619132 282.5
1.1427424 -3.1846223 1.8410411 275
1.2498453 -3.24281 1.879491 284.75
0.78375876 -3.3114228 1.9936697 273
0.84176034 -3.2124782 2.0236824 305
0.99927235 -3.1872842 2.0108168 278.42859
1.1128753 -3.1728981 2.002856 267
1.2378731 -3.259748 2.0291173 331.5
0.7326026 -3.3580518 2.1487055 233.5
0.83389801 -3.2314618 2.1728132 290.71429
0.95949149 -3.2039793 2.1791992 272.14288
1.1135348 -3.189301 2.1670644 266.80002
0.76448035 -3.3292599 2.2774546 269
0.83161014 -3.2459793 2.3458695 277.66669
0.97393739 -3.1863058 2.3187149 267.33334
1.1250267 -3.1965256 2.3136499 270
1.2198967 -3.2701125 2.3549285 281.75
1.0919843 -3.1365747 2.3453698 263
0.79967767 -3.401088 2.5078337 207.5
0.84798259 -3.2359569 2.4610784 272.66669
0.94928545 -3.1789386 2.469027 270
1.1330396 -3.1898584 2.4659102 266.5
1.2085392 -3.263555 2.4760599 269
1.0058131 -3.1489956 2.5030956 257
1.0960163 -3.1425307 2.488481 257
0.71604198 -3.3854904 2.6646671 394
0.80132377 -3.4101791 2.6294599 257
0.85596895 -3.2293019 2.5806994 243
0.71948653 -3.4559639 2.766089 273
0.80855453 -3.399179 2.7090607 269
