# .PCD v0.7 - Point Cloud Data file format
VERSION 0.7
FIELDS x y z intensity
SIZE 4 4 4 4
TYPE F F F F
COUNT 1 1 1 1
WIDTH 1
HEIGHT 77
VIEWPOINT 0 0 0 1 0 0 0
POINTS 77
DATA ascii
0.51372486 1.5122875 0.2543363 304.66669
0.64875615 1.6335238 0.2454844 441.39999
0.54352212 1.7263255 0.23978662 440.19049
0.6646378 1.7173011 0.23169358 339
0.57920593 1.8123882 0.21379049 295
0.79259139 1.1737403 0.38993645 958.60004
0.70832717 1.2997134 0.42671531 417.33334
0.80457526 1.2414051 0.38526809 563.72729
0.53651333 1.4281017 0.39800662 726.05884
0.64352351 1.3861825 0.4130097 315.22223
0.52892637 1.5352935 0.39896041 289
0.65466815 1.609883 0.35147011 391.33334
0.53124583 1.7238637 0.37501881 387.35294
0.63693321 1.7073938 0.3490487 292
0.52522427 1.8255215 0.31569892 254
0.78575754 1.1990225 0.54144371 162
0.69870013 1.3067341 0.48955148 399.23529
0.79334468 1.2424986 0.49519041 491.00003
0.55236614 1.4486494 0.5073967 352.09091
0.62672704 1.3812324 0.48795548 362.55557
0.54897445 1.5693897 0.54288077 435.80002
0.64547813 1.5441478 0.56940502 522.14288
0.43388534 1.7202176 0.54420543 399.66669
0.4948684 1.6920242 0.53080988 433.70587
0.41915014 1.8584015 0.54728627 269
0.79859543 1.1926844 0.60395014 366
0.65032047 1.4715791 0.70912427 493.14288
0.53305888 1.6094576 0.68553823 505.27777
0.65558606 1.5314013 0.66701144 545.46155
0.75177616 1.6044214 0.74790072 473
0.43146297 1.6884147 0.66095155 520.55554
0.52915066 1.6777009 0.682239 419.20001
0.72582984 1.6937387 0.66294068 455
0.41494766 1.808875 0.62635022 271
0.49226788 1.491933 0.83616358 681
0.67528248 1.4601889 0.81490004 449.25
0.43607789 1.6443202 0.87317622 513
0.52632815 1.5713055 0.82106012 593.8667
0.65189409 1.5419658 0.83189231 551.07697
0.41446254 1.7126992 0.8237415 462.25
0.5974021 1.4998819 0.90412384 593
0.77081132 1.4914379 0.94226861 346
0.44796935 1.6421596 0.93702722 415
0.51883018 1.5850108 0.98203903 643.88
0.66468322 1.55478 0.9771871 562.875
0.79429805 1.5601574 0.97935718 310.33334
0.42134479 1.7289782 0.97917235 423.42859
0.45168972 1.6514773 0.93964666 601
0.66028774 1.4963547 1.1655631 567
0.52953869 1.577915 1.1239365 514
0.66150361 1.544306 1.1293615 530.82611
0.79609823 1.568835 1.1265829 473.83334
0.43103418 1.706617 1.1295195 362.125
0.4578492 1.663527 1.1435983 509
0.72809809 1.6634548 1.1265055 441
0.81839687 1.6568691 1.0937681 296.5
0.38009331 1.4377096 1.2974108 343.35294
0.48293886 1.431783 1.3367242 327
0.69245434 1.4919437 1.2542098 445.66669
0.28765291 1.6087587 1.3132352 287
0.4040305 1.5853642 1.2783122 338.57144
0.51925635 1.5783471 1.2782892 438.09375
0.66938639 1.5438702 1.2688253 427.9697
0.80812418 1.5680177 1.2695471 413.3125
0.42919707 1.681 1.2633573 381
0.45526865 1.6686065 1.2906901 393
0.87768656 1.6637132 1.2752979 265
0.42770141 1.4612595 1.3716378 303
0.48293465 1.4602803 1.364188 288.83334
0.43465227 1.6380677 1.3837569 361
0.54303408 1.5968937 1.3896948 351.23077
0.67105091 1.5731096 1.3952993 378.38889
0.81111604 1.6249641 1.3822329 351.5
0.50650471 1.6887277 1.4158877 319.5
0.67820925 1.6694427 1.4663422 299
0.82066238 1.6600991 1.3763597 307
0.59694624 1.6465769 1.5026934 293
