# .PCD v0.7 - Point Cloud Data file format
VERSION 0.7
FIELDS x y z intensity
SIZE 4 4 4 4
TYPE F F F F
COUNT 1 1 1 1
WIDTH 1
HEIGHT 89
VIEWPOINT 0 0 0 1 0 0 0
POINTS 89
DATA ascii
0.59441936 2.0850272 0.13892508 273
0.68075866 2.0433302 0.13172868 278.33334
0.67900276 2.1601725 0.1375311 402
0.76102877 2.1080751 0.13910043 244
0.56584382 2.300072 0.12598869 406
0.66621268 2.4422112 0.11844614 410
0.82361972 2.5289407 0.11875597 282
0.53846747 2.6327538 0.10229072 388
0.80396789 2.5923419 0.1211037 632.5
0.41208455 2.7179685 0.12040019 253
0.54045457 2.7571094 0.12637183 276.33334
0.64468336 2.7972298 0.12712641 284
0.8107841 2.734587 0.13704312 261
0.68068194 2.9465575 0.11455595 362
0.74953288 3.1091261 0.07120958 265
0.75388479 3.1128199 0.12898472 261
0.41911903 2.6704032 0.19691406 435.39999
0.81648529 2.6346972 0.21666595 367.33334
0.42006737 2.7488518 0.28361124 245
0.57827121 2.8093333 0.21909481 282.5
0.62494439 2.8180184 0.22075175 310.20001
0.84494889 2.7301326 0.24084817 271
0.57274461 2.8593702 0.29265264 404
0.64750159 2.8661008 0.25674206 302
0.72773015 3.0773764 0.19342782 325
0.76276296 3.1369014 0.21783155 280
0.57063222 2.6808321 0.43430507 331
0.67813098 2.6797495 0.41390297 357
0.78952307 2.6772728 0.41961873 344.5
0.43166772 2.7622433 0.37800768 348.5
0.544038 2.7715681 0.421938 313.39999
0.65745795 2.8436625 0.37101966 309
0.8192575 2.7481151 0.44466487 283
0.58473724 2.8707943 0.35233039 326
0.65808016 2.8557899 0.35969099 304
0.77844471 3.122257 0.34334174 297.39999
0.58867884 2.6900337 0.4841606 329
0.6913805 2.6820807 0.49255347 347
0.44679886 2.7879696 0.46205258 271
0.51199645 2.7641971 0.52750623 305.85715
0.67416257 2.7275894 0.52861381 325.66669
0.81464458 2.7358584 0.53253984 306.5
0.70801771 3.0396848 0.54518384 349
0.79634786 3.0247741 0.59403265 321
0.81879365 2.6880641 0.61835337 220
0.57765853 2.7914252 0.65870309 307.5
0.62280291 2.7949057 0.69873351 484
0.77625227 2.8062115 0.7063024 287
0.56156743 2.9109666 0.69123608 293
0.69862556 2.9864888 0.74582171 281
0.56447589 3.0337324 0.63721567 415
0.73108852 3.0401461 0.65947741 323.5
0.81462955 3.0625966 0.69319296 308.60001
0.71493161 2.7619567 0.77775931 503
0.79078299 2.8060517 0.80717909 296
0.51685667 2.8728032 0.79703236 291.5
0.69661522 2.9441571 0.83604181 303
0.83143669 2.9646478 0.8285653 284
0.59192705 3.0133469 0.84188432 309
0.66313732 3.0208578 0.83039212 309
0.75474232 3.0228221 0.88997453 293
0.91120493 3.1168947 0.88216269 239
0.67009795 2.8366146 1.0146306 369
0.81251758 2.8228579 0.96332586 303
0.51045179 2.9293203 0.95250058 277
0.64898646 2.9432209 0.99822253 325.39999
0.76759571 2.9478338 0.97934312 313.80002
0.57945991 3.0399721 0.92404848 301
0.63459742 3.0391636 0.93353558 307.5
0.82005543 2.8202102 1.1256568 331.85715
0.53098649 2.9400725 1.1418623 318.20001
0.65483534 2.889044 1.1318194 351.66666
0.76588029 2.8760877 1.0844185 340
0.49843991 3.0215826 1.1171443 275.66669
0.69563484 2.8325441 1.2825693 369.80002
0.81982058 2.8029292 1.2509913 361.28574
0.53391361 2.9022298 1.267669 365.25
0.66631728 2.862576 1.2770759 343.66669
0.59692621 2.8475759 1.4896957 295
0.65460992 2.8076007 1.4250541 312.5
0.78645301 2.7940102 1.3612787 359
0.90044415 2.8388176 1.3616019 235
0.56819379 2.91677 1.3907174 311
0.70154941 2.9044437 1.455398 287.5
0.58290845 2.7513673 1.600186 354
0.68023133 2.7972572 1.5598133 281.20001
0.56923294 2.8631592 1.5395854 252
0.60889471 2.854239 1.5671599 265
0.75837636 2.8983459 1.5613134 249
