# .PCD v0.7 - Point Cloud Data file format
VERSION 0.7
FIELDS x y z intensity
SIZE 4 4 4 4
TYPE F F F F
COUNT 1 1 1 1
WIDTH 1
HEIGHT 55
VIEWPOINT 0 0 0 1 0 0 0
POINTS 55
DATA ascii
3.1022077 1.1804669 0.097420573 383.75
3.2697346 1.0046898 0.26451442 369
3.1121778 1.1805886 0.23612086 448.33334
3.1665077 1.1061772 0.25199011 434.33334
3.5370405 1.1379057 0.19638744 369
3.0966609 1.2455685 0.18356571 337
3.265337 1.0022708 0.33813888 417
3.3361611 1.0248913 0.41325438 345
3.2281284 1.0944831 0.38227805 381.5
3.3551722 1.1700454 0.38293415 364
3.5260363 1.1121349 0.37539223 375
3.2974505 1.0118749 0.56737238 351
3.3370037 1.0233346 0.53022397 353
3.2320635 1.0690924 0.53146362 428
3.4212265 1.1125753 0.52523243 363.66669
3.4864483 1.2506534 0.59291941 305
3.4042563 0.86441284 0.72022736 271
3.2283745 1.0449245 0.72193176 415
3.3193805 1.010283 0.68619537 404.5
3.4546061 0.96500808 0.69167387 247
3.2609348 1.0706508 0.68821704 392
3.3467121 1.1643695 0.68891048 325
3.379807 0.84856129 0.79625678 303
3.2550685 0.99933803 0.83572793 385
3.3590152 0.92128223 0.85229135 333.66669
3.141892 1.1082058 0.8732937 2525
3.2436824 1.1031015 0.84620416 356
3.3590438 1.1839849 0.82767034 335
3.2338643 1.2193959 0.89853519 381
3.3441291 1.2688171 0.79500681 297
3.4944196 1.2464663 0.76278508 273
3.3347275 0.89952755 0.95155597 301
3.2637062 0.98945135 0.99682063 609.79999
3.3308666 0.96458554 0.95819491 351
3.2459831 1.0987201 0.981067 664.5
3.3429611 1.2616051 0.99777567 303
3.24894 0.97258902 1.1327608 389.66669
3.2775445 1.0998613 1.1190395 352.33334
3.3175707 1.1456106 1.1084118 314.33334
3.3735464 1.2577895 1.135777 317.66669
3.4979448 1.2940004 1.108008 277
3.2566731 0.973131 1.2692333 346.80002
3.2681928 1.1024578 1.2403381 1217.6667
3.3236003 1.1244795 1.2805231 314.33334
3.248477 1.2153455 1.2069281 335
3.3803606 1.221451 1.2730479 309
3.461148 1.2996982 1.3428817 283
3.4303031 1.0326822 1.4562495 317
3.3501365 1.1211617 1.4094862 329.75
3.473021 1.1359234 1.4635123 253
3.4058597 1.2167561 1.3894844 243
3.4233527 1.0041473 1.5848351 322.25
3.4758127 0.97874653 1.5885375 308.66669
3.4116688 1.1260462 1.586609 305.60001
3.4701228 1.0505722 1.5794094 253
