# .PCD v0.7 - Point Cloud Data file format
VERSION 0.7
FIELDS x y z intensity
SIZE 4 4 4 4
TYPE F F F F
COUNT 1 1 1 1
WIDTH 1
HEIGHT 62
VIEWPOINT 0 0 0 1 0 0 0
POINTS 62
DATA ascii
1.6711028 2.8024616 0.064975046 289
1.6989629 2.8643017 0.069172531 297
1.9189706 2.8909984 0.079020515 277.66669
1.582556 2.7445703 0.22274405 295
1.6948487 2.7841079 0.24517034 295.39999
1.9139479 2.8315969 0.19533569 287
1.9861714 2.8074327 0.18194327 364
1.7278944 2.8659749 0.16986212 279
1.9170429 2.855381 0.22769029 285
1.9964266 2.8764901 0.24779454 283
1.6187978 2.7571359 0.33633351 305
1.6980931 2.7616949 0.39531904 297
1.9253786 2.8252926 0.34741992 283
1.9854407 2.8148632 0.38473329 352.5
1.8796784 2.8624105 0.40404838 380
2.0522127 2.8884535 0.30888972 261
1.7380441 2.7841437 0.53135079 302.20001
1.8978333 2.7618675 0.50040412 308
1.9764442 2.7762241 0.50489902 307.66669
1.9271827 2.8976307 0.51243484 275
2.0607798 2.871804 0.45383137 279
1.7423537 2.8058014 0.67573333 311.5
1.9027026 2.7904451 0.64773554 300.20001
2.0003076 2.757741 0.64047837 312.5
1.8704195 2.8679123 0.68473309 296.33334
1.8509645 2.6109679 0.82063133 340.5
1.7605466 2.7837923 0.83877838 319.66669
1.8543185 2.7552249 0.80354738 352.60001
2.0101943 2.7255716 0.79307508 297.5
1.637514 2.8974273 0.84761322 311.33334
1.7668998 2.9714599 0.84944791 322
1.8034825 2.8660593 0.79781288 297
1.8293245 2.5351183 0.95796353 307
1.8431666 2.6553931 0.9616518 351.66669
2.0072567 2.6688764 0.95631689 291
1.6322439 2.8218501 1.0051266 344
1.7714134 2.7751882 0.99106997 351.39999
1.8762631 2.7608099 0.97248602 356
2.0196176 2.703577 0.90976334 275
1.7349367 2.9428723 0.95218211 296.60001
1.7958457 2.6990397 1.161365 403
1.9005609 2.6943951 1.116454 380
2.0569661 2.6990392 1.0717652 289
1.638592 2.7873056 1.1560374 384
1.761289 2.7699635 1.1198711 383
1.8925136 2.742774 1.1387731 383
2.0265667 2.7553272 1.1159153 363.66669
1.7053773 2.8745022 1.0817505 361.66669
1.9700429 2.6889565 1.3148439 222
1.7223459 2.8139677 1.2407839 344.75
1.8611431 2.7507932 1.2970939 331.66669
1.9801873 2.7373648 1.2496066 360.33334
1.7729514 2.6726339 1.4643214 287
1.8507903 2.6663399 1.4316583 313.60001
1.6474082 2.7031808 1.4777911 382
1.7648909 2.7723284 1.4459167 304.75
1.8074846 2.7543533 1.3787413 276
1.7979076 2.860503 1.3774819 426
1.7983038 2.6849282 1.5442322 269
1.8522499 2.6095161 1.5135026 297
1.7305944 2.76512 1.5019963 414
1.8353505 2.7157223 1.5577135 273
