# .PCD v0.7 - Point Cloud Data file format
VERSION 0.7
FIELDS x y z intensity
SIZE 4 4 4 4
TYPE F F F F
COUNT 1 1 1 1
WIDTH 1
HEIGHT 91
VIEWPOINT 0 0 0 1 0 0 0
POINTS 91
DATA ascii
-0.24654111 -2.2531974 0.28568149 261
-0.30269834 -2.2421231 0.2964212 241
-0.16944224 -2.1986589 0.27679867 263
-0.32132405 -2.2788846 0.40185934 262.71429
-0.25268134 -2.2578714 0.34589806 269
-0.32546186 -2.2404222 0.33244908 277
-0.21302931 -2.2144413 0.37923604 265
-0.080418348 -2.1627223 0.36811376 275.81818
0.013971448 -2.1272454 0.42803398 288
0.075596951 -2.0501983 0.37008101 287.07407
0.18282187 -2.0144513 0.35388553 291.18182
0.25502887 -1.8483386 0.3735643 333.59091
-0.33607763 -2.3441143 0.50457829 602
-0.29406187 -2.3282115 0.59120071 265
-0.33536991 -2.2090895 0.57390046 270
-0.21966352 -2.2102718 0.51480162 269.11765
-0.07233572 -2.1526933 0.52543378 282
0.034247816 -2.1131003 0.49721816 293
-0.0026341677 -2.0890496 0.56475353 279
0.088675521 -2.0339408 0.52086836 285.82352
0.18143074 -1.995177 0.52322817 302.16669
0.2608805 -1.8472073 0.52831233 322.625
-0.26974508 -2.2695549 0.64620507 274.33334
-0.20921159 -2.1877432 0.6709758 291.77777
-0.087552175 -2.1428564 0.67837703 287.83334
0.0033465326 -2.1012349 0.70239246 301
-0.028858557 -2.0823703 0.68372983 292
0.067525707 -2.0301521 0.67749035 303
0.19174474 -1.9894581 0.64095324 306.39999
0.25493598 -1.8500595 0.67620724 435
0.3163054 -1.8124521 0.68980569 559.66669
-0.2022621 -2.2541206 0.8770569 269
-0.20899934 -2.1903877 0.80645984 267.75
-0.084099874 -2.1264844 0.82202637 294.5
0.016489983 -2.1091146 0.80263042 293
-0.070086852 -2.0827961 0.83107662 296
0.078227483 -2.0199788 0.82850933 309.75
0.17539555 -1.9628953 0.79265141 269
0.14498152 -1.9324296 0.79320014 335
0.22520231 -1.8534847 0.83269703 481.70001
0.332618 -1.8302231 0.83905476 498.20001
0.255413 -1.7914832 0.83507442 611
-0.18437417 -2.1820602 0.95852005 274.71429
-0.096772045 -2.1281838 0.99078655 288.14288
-0.014110546 -2.0604544 0.96225613 302.66669
0.079666711 -2.0093725 0.97525555 315.66666
0.16986588 -1.9854432 0.98061442 316
0.1119097 -1.9328537 0.95308012 347.5
0.24694936 -1.8614764 0.97451091 403.5
0.32641095 -1.8940411 0.94682229 323
-0.28101298 -2.2651131 1.0794989 275
-0.22018975 -2.187958 1.1366696 269.75
-0.092796102 -2.1402204 1.1189939 280.60001
-0.044678509 -2.0976722 1.1524069 285
0.06031435 -2.0278864 1.1224288 305.85715
0.23991732 -1.864097 1.1209395 384.125
0.30207375 -1.814257 1.1256673 497
0.30869284 -1.7907937 1.1632799 527
-0.093006119 -2.1230605 1.2716491 281.75
-0.04041354 -2.0773125 1.2718058 287.33334
0.066285506 -2.0141833 1.2708999 298.80002
0.23466304 -1.8278776 1.2941395 404.18182
0.32644051 -1.8175745 1.2909355 509
0.2237353 -1.7870276 1.2296529 459
0.31530783 -1.7798799 1.2047017 547
-0.10115906 -2.1186132 1.4257797 283.66669
-0.057996891 -2.0753388 1.4271625 277.75
0.24525678 -1.8261781 1.4165008 385.66669
0.32467765 -1.8278668 1.4371303 394
0.20457782 -1.7873856 1.4595927 351
-0.20596808 -2.1596971 1.5815716 281.625
-0.10682856 -2.1166217 1.5545499 275.66669
-0.063939758 -2.0632489 1.5808527 286
0.15450935 -1.971613 1.6042967 265
0.23518668 -1.8232644 1.5623649 357.20001
0.32982862 -1.8595982 1.5609591 311.22223
0.22021948 -1.7988962 1.5902231 361
-0.19916458 -2.1422672 1.6955776 350.39999
-0.14134678 -2.114996 1.7405453 326.5
-0.05964388 -2.0585108 1.7218128 254.52942
0.076135799 -2.0054705 1.7372485 257.34784
0.16609707 -1.9740425 1.7317032 273.39999
0.24563622 -1.8365331 1.6932867 312.33334
-0.12750791 -2.1223898 1.8594027 252.33334
-0.16535884 -2.0945065 1.8588533 416
-0.062712692 -2.0302706 1.8531772 255.9091
0.06852483 -1.9793555 1.8377427 257.88889
0.17819083 -1.9683073 1.803493 259
-0.036896452 -1.9263197 1.8424382 253.5
0.025736481 -1.886784 1.8315792 406
0.1766693 -1.9310848 1.808663 251
