# .PCD v0.7 - Point Cloud Data file format
VERSION 0.7
FIELDS x y z intensity
SIZE 4 4 4 4
TYPE F F F F
COUNT 1 1 1 1
WIDTH 1
HEIGHT 85
VIEWPOINT 0 0 0 1 0 0 0
POINTS 85
DATA ascii
1.4913361 2.8933711 0.022595644 293
1.5574028 2.9224949 0.074428961 279
1.7437934 2.915267 0.050550707 298.20001
1.8082604 2.9152331 0.099050194 277
1.9017652 3.1011701 0.083022669 297.66669
1.9663117 3.0715237 0.01302667 266
1.8193738 3.2112393 0.069055796 264
1.5668337 2.8759313 0.20125061 266.66669
1.7300159 2.9099998 0.24727747 300.5
1.8301481 2.9172802 0.21409833 262.66669
1.7565223 3.0022604 0.22875647 281
1.9220827 3.1128097 0.20323686 281
1.749048 3.2222891 0.20484814 276
1.821727 3.1677163 0.15774624 289
1.6251857 2.8424237 0.37267488 287
1.617141 2.8595617 0.31023705 293
1.7257637 2.8885658 0.4013105 304.60001
1.8445774 2.9271712 0.3791613 280
1.7335021 3.1214433 0.44879243 321
1.7507116 3.1889753 0.34067279 303
1.6541078 2.814333 0.53869629 316
1.7708222 2.8933134 0.53276861 301
1.8575578 2.9153671 0.52373326 290
1.7333677 3.0883408 0.56113815 305
1.7011113 3.1604693 0.5343976 280
1.6846304 2.8029637 0.68221694 309
1.9086697 2.8152699 0.69822168 104
1.7921464 2.9210401 0.64886564 281
1.8536319 2.9033761 0.67894125 272.5
1.6967156 3.0757129 0.65186036 303.39999
1.5955696 3.2355142 0.68032336 275
1.7127328 3.2238879 0.70493662 249
1.6420174 3.3666933 0.73648143 249
1.7261286 2.8110008 0.83414733 285
1.8714167 2.8340502 0.82590246 351.75
1.9650974 2.8436918 0.8615908 218
1.6152022 2.9500251 0.7934891 294
1.712702 2.9572597 0.82472575 291
1.8372827 2.9276705 0.8343395 285
1.7071804 3.0385191 0.79152095 283
1.5419037 3.2358015 0.89994669 269
1.6808335 3.2782521 0.84820288 260
1.6631584 3.3666081 0.82199544 281
1.7625048 2.8060572 0.99178308 301
1.8656371 2.8098855 0.98554879 301
1.632628 2.9376931 0.95211005 293
1.7400303 2.9520111 0.94557154 293
1.8748217 2.8987284 0.99256182 295
1.7290374 3.0298338 0.96478671 292
1.5288037 3.1506371 0.96988142 398
1.6883527 3.2871373 0.98366487 405
1.6891549 3.3770018 0.91140127 279
1.7968953 2.7787588 1.1858966 279
1.8769033 2.8254063 1.1555712 295.5
1.6478183 2.9319685 1.0740315 289
1.7420908 2.9434152 1.1338297 295.5
1.8800329 2.9123409 1.1093644 295
1.758785 3.0450354 1.1254061 281.66669
1.7160165 3.2701395 1.1144302 326.5
1.7481235 3.3844552 1.1409085 265
1.8535566 2.7889676 1.2959237 302.33334
1.7458203 2.9304235 1.2696222 300.20001
1.8995425 2.9549139 1.2796506 288
1.9584 2.8742776 1.2944058 295
1.7648001 3.0232346 1.2640029 299
1.8134335 3.0187895 1.3472104 299
1.7156937 3.2055507 1.2795398 323.5
1.7476364 3.3064299 1.2616289 267
1.8869796 2.7929897 1.3917127 352.5
1.7209623 2.9575799 1.4990562 311
1.8260431 2.9276114 1.4287632 297.66669
1.9893106 2.8913732 1.3849854 283
1.7658403 3.0283067 1.3957114 299
1.8447703 3.0981872 1.4619625 271
1.7273581 3.1647327 1.401414 281
1.8721433 2.7729628 1.5047623 299
1.7138703 2.907671 1.6006088 307
1.8483208 2.9449551 1.5734304 316.75
1.7144554 3.0439043 1.5896523 324
1.8552504 3.0393338 1.5698757 276
1.7282342 2.912421 1.7445033 339.33334
1.830847 2.95193 1.6584831 257
1.7134368 3.0278511 1.7328608 287
1.8731457 3.0165553 1.7267206 279
1.6729383 2.9519563 1.8505008 285
