# .PCD v0.7 - Point Cloud Data file format
VERSION 0.7
FIELDS x y z intensity
SIZE 4 4 4 4
TYPE F F F F
COUNT 1 1 1 1
WIDTH 1
HEIGHT 59
VIEWPOINT 0 0 0 1 0 0 0
POINTS 59
DATA ascii
0.42569339 1.4113599 0.26862013 467.28574
0.51253486 1.4185932 0.26086259 469.65518
0.17788756 1.595052 0.27450109 369.5
0.36662 1.5716856 0.26639792 459.3158
0.14637278 1.6857064 0.29325664 291
0.20547044 1.666191 0.2975688 404
0.43252656 1.4385753 0.37029907 385.80002
0.52188182 1.4000802 0.37164015 501.16669
0.63626432 1.4648342 0.39096802 426
0.17494011 1.6154437 0.31489763 335
0.3745527 1.5821624 0.35609975 423.06897
0.450692 1.5100569 0.41279781 343
0.65267015 1.5432019 0.37616202 281
0.17818859 1.6997232 0.33784086 253
0.41530338 1.677546 0.36586571 303
0.53908175 1.3367288 0.56886798 611.40002
0.43818372 1.4205726 0.54095864 494.75
0.51877713 1.3691665 0.51655978 570.88574
0.61926007 1.4047618 0.51637208 459.25
0.38808224 1.5455167 0.52287775 519.3158
0.37951043 1.6997403 0.46691048 291
0.43846351 1.3388326 0.67094648 603
0.52211183 1.3158481 0.68530309 595.32001
0.64390022 1.309556 0.72905588 409
0.40204829 1.3950722 0.67286366 462.45456
0.51549184 1.3637228 0.65205765 560.53845
0.62609255 1.3835033 0.66905421 476.875
0.28541306 1.5805732 0.73565102 378
0.37154827 1.5856214 0.69556582 293.20001
0.36181191 1.6821598 0.70028722 293
0.40107894 1.2963169 0.82776374 308.75
0.52376479 1.2895906 0.82726902 519.75
0.62250572 1.2854199 0.82118893 520.79999
0.37172663 1.4027867 0.80378014 451
0.52004099 1.3580564 0.82857436 497.33334
0.71857321 1.381044 0.80787629 265
0.29443035 1.5504963 0.76759815 317
0.32705158 1.5259094 0.75502807 347
0.41132423 1.3191235 0.99931508 490
0.51159179 1.2863533 0.97616231 508.41669
0.39093655 1.3707304 0.94449961 501.60001
0.52747959 1.3935544 0.97048628 460.71429
0.36448875 1.5428053 0.97920883 379
0.63339049 1.5220027 1.0102662 352
0.41511312 1.2765428 1.1197648 496.13043
0.49273151 1.2623836 1.123588 495.77777
0.61478084 1.2982185 1.0604963 332
0.38652277 1.4877208 1.1295339 415.66669
0.56580633 1.4156404 1.1429743 442.66669
0.63248175 1.414711 1.1701504 448.33334
0.36843103 1.5247065 1.1239421 349
0.58899736 1.5144796 1.1104261 350.5
0.62917602 1.6010692 1.1360468 283.66669
0.43060777 1.2595674 1.2213393 443
0.48569453 1.247448 1.2231331 465
0.58073729 1.4110228 1.2334881 404.60001
0.63887322 1.4161586 1.2440245 431.5
0.39415258 1.5692887 1.2659805 364.33334
0.60192931 1.4710158 1.3562382 259
