# .PCD v0.7 - Point Cloud Data file format
VERSION 0.7
FIELDS x y z intensity
SIZE 4 4 4 4
TYPE F F F F
COUNT 1 1 1 1
WIDTH 1
HEIGHT 58
VIEWPOINT 0 0 0 1 0 0 0
POINTS 58
DATA ascii
1.0191115 -2.1177249 0.098006055 408
0.89034486 -2.0753913 0.11555699 329.5
0.9400624 -2.0765986 0.10825785 331.55557
0.96368766 -2.1087363 0.22536607 241
0.89507365 -2.0763588 0.17992717 411.33334
0.96288502 -2.0601668 0.20469369 378.00003
0.84884673 -1.9291782 0.26636699 282
0.98888916 -1.8780537 0.26296619 272.22223
0.8793354 -1.9132923 0.36459967 299.39999
0.94951952 -1.8650358 0.36817223 317.13336
1.0976516 -1.8408893 0.32561946 298.66669
0.97240114 -1.731349 0.38237143 339.9231
1.0903139 -1.7041432 0.37836894 316
1.0220569 -1.6339016 0.41009435 370.33334
1.0860436 -1.6294124 0.41281703 364
0.9938128 -2.1803966 0.58255571 307
0.98946637 -1.96226 0.55351877 302.5
1.0542994 -1.9526566 0.59249055 345
0.89297777 -1.8851571 0.48875177 361
0.97233969 -1.8969272 0.49489221 300.25
0.99264026 -1.7085949 0.51323438 364.71429
1.092599 -1.7336328 0.51258606 319.72729
1.0334074 -1.6373583 0.4616285 369
1.0931723 -1.6281468 0.4521403 408
0.83463669 -2.1381516 0.65427721 328.33334
1.0084804 -2.1407847 0.68518758 321
1.0940418 -2.1927052 0.6819576 262.5
0.84287894 -2.0115242 0.70551652 451.57144
0.9594869 -2.0509901 0.68069774 385
1.1086845 -2.0380664 0.69074935 287
1.2035174 -2.0977457 0.7080127 275
1.0375369 -1.8383884 0.62505573 301
1.1479375 -1.9277687 0.70689297 335
1.1139462 -1.7690651 0.60368931 314.33334
1.0491581 -2.1350904 0.79145414 301
1.1289512 -2.1056719 0.89258343 505
1.2328404 -2.1162691 0.79678673 330.5
0.97689503 -2.0244455 0.83465517 414
1.1066661 -2.0322335 0.81101984 395.44446
1.153903 -1.9317149 0.84272212 524.5
0.99280125 -2.0143003 0.96083212 431.00003
1.1251239 -2.0355089 0.98827124 421.39999
1.2071916 -1.9615372 1.0150502 559
1.0432949 -1.948269 1.0208595 549
1.1530479 -1.9442384 0.95689446 570
0.97036439 -2.1096411 1.1141626 388
1.1978083 -2.1015677 1.1821392 391
1.0336558 -2.0615149 1.0905888 426
1.1201074 -2.0179272 1.1033 442.625
1.2224562 -1.9898167 1.1183311 506.33334
1.0546193 -1.9442103 1.0729668 545
1.1621497 -2.2763391 1.3161955 263
1.1181488 -2.1697459 1.2873322 374.25
1.2831209 -2.1724799 1.3058451 391.66669
1.1351854 -2.0271316 1.2110331 311
1.1531349 -2.1225519 1.3964921 472.75
1.2986009 -2.1577406 1.3977414 401.80002
1.1808074 -2.0714211 1.41561 488
