# .PCD v0.7 - Point Cloud Data file format
VERSION 0.7
FIELDS x y z intensity
SIZE 4 4 4 4
TYPE F F F F
COUNT 1 1 1 1
WIDTH 1
HEIGHT 59
VIEWPOINT 0 0 0 1 0 0 0
POINTS 59
DATA ascii
2.721175 -3.9152594 0.089788318 249
2.6657624 -3.872293 0.013968214 369
2.8130708 -3.8667979 0.072305098 338.5
2.9685659 -3.6314025 0.12643185 255
3.0689898 -3.60671 0.10932902 249
2.9362333 -3.5946722 0.042650551 245
3.026454 -3.5477846 0.025816679 249.5
3.1739979 -3.5522637 0.090298206 358
2.6533775 -3.9447434 0.28698701 247
2.7510474 -3.9257579 0.17545483 263
2.8040555 -3.8446503 0.21952346 287.60001
2.8175435 -3.6273077 0.19606926 339.5
2.9430015 -3.6062062 0.22146314 265
3.064656 -3.5869646 0.20242542 247
2.6621766 -3.9185085 0.38206229 265
2.8047521 -3.8261986 0.35424682 298
2.9156861 -3.8588014 0.44512004 249
2.8417819 -3.6372769 0.33360758 265
2.9467893 -3.6471267 0.3700766 272
2.6959174 -3.931962 0.4807834 283
2.6899977 -3.8802054 0.58117282 267
2.8139133 -3.8422771 0.50917494 275
2.8141804 -3.6734142 0.54171002 281
2.9270005 -3.6367848 0.52483767 279
2.651885 -3.7774463 0.67835557 265
2.8649199 -3.84392 0.66565466 269
2.6883349 -3.6362524 0.65447921 269
2.8228736 -3.6294441 0.69317889 281
2.9381709 -3.6159012 0.62690079 271
2.6427364 -3.5297291 0.74631262 309
2.9432039 -3.5864756 0.72966254 267
2.856812 -3.8099709 0.77231669 273
2.5937982 -3.6042533 0.86806387 307
2.8159659 -3.7277367 0.87335873 303
2.8530402 -3.6152461 0.85042161 301
2.6297579 -3.5837796 0.80916846 302
2.9635091 -3.5771556 0.8360579 271
2.7677383 -3.8488939 0.95649678 274
2.8213723 -3.7131178 0.98261487 299
2.8935852 -3.6333926 0.96234834 301
3.0099916 -3.6017623 0.9497813 299
2.6081426 -3.5858922 0.97040278 301
2.733387 -3.5859013 0.96234632 295
2.7251935 -3.9461329 1.1543033 428
2.7813344 -3.832957 1.125201 271
2.6466169 -3.6040692 1.0804796 303
2.8114071 -3.649631 1.1573734 305
2.669162 -3.5974028 1.1876993 297
2.7527251 -3.5748661 1.0685517 305
2.8991256 -3.5829859 1.1200089 293.5
2.7946165 -3.815913 1.2952476 301
2.7721457 -3.6406651 1.3073111 306
2.8137274 -3.5835171 1.2911389 384
2.7467036 -3.8429742 1.4406877 234
2.8801105 -3.7055266 1.4376159 309
2.6460402 -3.9470768 1.5132018 277
2.6429992 -3.8109517 1.5868883 270
2.7810533 -3.7343228 1.5613004 402
2.8787725 -3.6808133 1.5448023 368
