# .PCD v0.7 - Point Cloud Data file format
VERSION 0.7
FIELDS x y z intensity
SIZE 4 4 4 4
TYPE F F F F
COUNT 1 1 1 1
WIDTH 1
HEIGHT 55
VIEWPOINT 0 0 0 1 0 0 0
POINTS 55
DATA ascii
-0.073940292 2.0227034 0.28351721 415.39999
-0.23812327 2.1660299 0.29174244 377
-0.15853085 2.0379932 0.43010426 369
-0.079956748 2.0147209 0.36961687 419.50003
-0.33378872 2.1909261 0.36998013 316.42859
-0.24776421 2.1668465 0.37016043 357.55557
-0.0064261854 2.1274767 0.36974379 302
-0.38279745 2.277282 0.39177972 265
-0.18067618 2.0278687 0.55708933 375.5
-0.083843932 2.0219827 0.5192169 428.31821
-0.30049464 2.1987693 0.47048742 311
-0.25308719 2.1839044 0.50913244 332.81821
-0.033752233 2.1052296 0.45424384 313
-0.28785434 2.2507861 0.54406506 285
-0.088950723 1.9305956 0.67932367 340
0.028577 1.928804 0.72198474 182
-0.20271967 2.0070939 0.68590748 386.83334
-0.084375821 2.0092258 0.65698135 460.66669
-0.30149558 2.1096728 0.6733532 328
-0.23685774 2.1042717 0.6138562 309
-0.043776244 2.1525517 0.71873307 311
-0.1668743 1.9091501 0.78717768 2270
-0.084735364 1.9198431 0.82833195 2530
0.034667477 1.9332174 0.76887369 391
-0.31613287 2.0357909 0.84287119 1491
-0.22194041 2.004514 0.82356554 354.33334
-0.061949994 2.0065973 0.80898112 895.40002
0.043726705 2.0142124 0.86623609 957
-0.33751568 2.1338894 0.80855566 292
-0.030965433 2.1325307 0.81825745 342
-0.18310201 1.9129761 0.95858282 378.20001
-0.12994894 1.9146683 0.97318453 347.66669
-0.31104502 2.0565565 0.92494923 323
-0.23824035 2.020314 0.94269675 316.20001
-0.086262308 2.0200846 0.97563773 338.63638
0.093710303 1.962952 0.91274482 385
-0.32305542 2.1274734 0.99895227 289
-0.025530457 2.1364484 1.0413517 313
0.016799092 2.1745322 0.98255652 253
-0.16956332 1.8924521 1.1213652 393
-0.08674857 1.8749285 1.1991371 2453
-0.089322403 2.0365443 1.1356732 507.30771
-0.31765953 2.1379557 1.0590726 249
-0.027192593 2.2504659 1.1345809 289
-0.12392038 1.9199209 1.2641908 662.33337
-0.076972358 2.178515 1.2901688 287.33334
-0.073666424 2.2821207 1.2841163 263
-0.13200834 1.9492396 1.3530033 381
-0.07039234 2.0383689 1.4287403 323.33334
-0.15224895 2.1129136 1.4894828 287
-0.043268897 2.1227846 1.4116563 299.39999
-0.068591729 2.0264874 1.569073 317.66666
0.041378595 2.061377 1.5702147 319
-0.011898071 2.1407492 1.5452802 268.5
0.068017229 2.114805 1.5893052 304
