# .PCD v0.7 - Point Cloud Data file format
VERSION 0.7
FIELDS x y z intensity
SIZE 4 4 4 4
TYPE F F F F
COUNT 1 1 1 1
WIDTH 1
HEIGHT 57
VIEWPOINT 0 0 0 1 0 0 0
POINTS 57
DATA ascii
3.8934808 0.52039707 0.091859877 336
3.966332 0.54730535 0.10000774 324.33334
4.0851464 0.50551939 0.033162713 277
3.8153107 0.70390397 0.10240395 340.5
3.9200778 0.67853409 0.051611185 301
3.9273787 0.43231562 0.29759246 309
3.8497431 0.51704431 0.21753424 383
3.9498749 0.50365472 0.24064571 315.66669
3.7009835 0.72550929 0.15080541 392
3.8012028 0.68994009 0.22422382 347.66669
3.9274793 0.62154585 0.21586597 136
3.6655803 0.80691028 0.15561873 378
3.8766305 0.4284994 0.38462079 333
3.8680854 0.49875307 0.35794458 355
3.9426341 0.55580962 0.34379607 313
3.8168173 0.69390649 0.30749953 327
3.9594376 0.66016001 0.3555032 320.20001
3.9489312 0.76219773 0.30582786 261
3.8867617 0.4388032 0.51643467 334.5
3.8695939 0.52869487 0.5184657 346
3.9517927 0.67670971 0.52639377 326
4.077878 0.6660198 0.52990031 301
3.9260325 0.24981923 0.73752922 366
3.8595257 0.41225424 0.68249047 341.39999
3.9102254 0.34405357 0.73830223 269
3.8201892 0.5163945 0.69188941 370
3.8466907 0.61237216 0.71311468 348.33334
3.9410486 0.67595637 0.66304153 310
3.9505944 0.24618435 0.83027458 305
3.8372669 0.39352152 0.82119429 341.33334
3.72418 0.5951758 0.81704468 2205
3.8048453 0.53832948 0.82345235 364.33334
3.8683839 0.70860845 0.84003371 747
3.9263248 0.71493232 0.8015064 292
4.1176233 0.75588757 0.77474451 321
3.8387098 0.38872308 0.95228958 333.33334
3.7201591 0.56932223 0.94287288 1591
3.7896757 0.50448638 0.94989336 359.5
3.8273642 0.64746618 0.96412325 527
3.9273362 0.72113931 0.98370767 300
3.7872181 0.41255879 1.1146109 370
3.8204122 0.52684438 1.1273235 336.66669
3.8392696 0.65571493 1.1485116 470.20001
3.9433184 0.72520399 1.1214616 311
3.7902837 0.41961247 1.2655625 409
3.9148147 0.39041623 1.3488648 273
3.7376184 0.48870927 1.2306576 1480
3.8047097 0.52647746 1.308705 335
3.8134108 0.63374591 1.2586136 342
3.980902 0.73392612 1.3055451 301
3.8276455 0.55045652 1.4147941 387
3.9327388 0.4938857 1.4399146 283.66669
3.9298184 0.65159094 1.3703716 275
3.9579833 0.37808818 1.5910147 315
4.0932059 0.38337445 1.5580657 283
3.9321094 0.50144523 1.5594562 302.42859
3.9425006 0.5074147 1.6643192 330.5
