# .PCD v0.7 - Point Cloud Data file format
VERSION 0.7
FIELDS x y z intensity
SIZE 4 4 4 4
TYPE F F F F
COUNT 1 1 1 1
WIDTH 1
HEIGHT 49
VIEWPOINT 0 0 0 1 0 0 0
POINTS 49
DATA ascii
0.40313268 3.882926 0.052363589 327
0.53986722 3.8557363 0.096935295 383.5
0.70688301 3.8230836 0.059428431 374.80002
0.7576136 3.8680296 0.13460195 380
0.43324566 3.9398959 0.048921347 334
0.50939113 3.9487741 0.097897016 355.60001
0.64921659 3.9372907 0.083216295 357
0.40985197 3.8835397 0.20469984 393.33334
0.53530383 3.8800087 0.21443938 390
0.65550464 3.8289807 0.21972041 395.60001
0.7817179 3.8866963 0.20934853 385
0.52565563 3.9726415 0.22101168 380.66669
0.66437799 3.9716225 0.24041316 380
0.80945504 3.9158702 0.2947875 388
0.42151693 3.8992026 0.30832219 388
0.67607921 3.848206 0.37463745 398.80002
0.43317783 3.9099398 0.40149897 383
0.53093624 3.9675286 0.38315552 382.5
0.6804406 3.9998612 0.35462433 378.5
0.81219852 3.957232 0.41228342 376
0.67164707 3.8823173 0.51138461 395.33334
0.44669023 3.9173298 0.50504971 374
0.52814108 3.9682031 0.52998227 381.5
0.84728038 3.9791903 0.53705263 387.33334
0.58779126 4.0559034 0.56274813 394
0.67227668 4.0602512 0.50714457 384
0.76244521 3.8998468 0.68674421 420
0.52151728 3.9683089 0.69571447 399.5
0.6668117 3.9502714 0.6666398 406
0.75219929 3.9095345 0.60459161 247
0.91345906 3.9717283 0.66644812 386
0.66948581 4.0941572 0.67899954 389.5
0.81904286 4.0712414 0.64928854 396
0.77415752 3.8969543 0.7724601 416
0.58690292 3.9895883 0.81823212 362
0.68484855 3.9506562 0.79529774 392
0.95226258 4.0078168 0.80141342 379
0.50485885 4.1645312 0.85511321 296
0.65762162 4.1254077 0.82164431 374
0.83185887 4.1283031 0.82272768 353.33334
0.085632011 4.1919537 0.99029183 346
0.23515005 4.1827688 0.95880318 368
0.39469588 4.1337295 0.96940237 400
0.45999911 4.155787 0.9600324 276
0.18799406 4.2200189 1.0228827 372
0.25842828 4.3524547 1.0281267 370
0.35853392 4.3721933 1.0112687 374
0.54430604 4.3264217 1.0736176 394
0.3839795 4.3979349 1.1165376 376
